# .PCD v0.7 - Point Cloud Data file format
VERSION 0.7
FIELDS x y z rgb
SIZE 4 4 4 4
TYPE F F F U
COUNT 1 1 1 1
WIDTH 1108
HEIGHT 1
VIEWPOINT 0 0 0 1 0 0 0
POINTS 1108
DATA ascii
0.13763024 -0.0083628474 0.52400005 662917
0.13843825 -0.0083628474 0.52400005 597123
0.13924626 -0.0083628474 0.52400005 597378
0.10086562 -0.0075592636 0.52400005 7305605
0.10147163 -0.0075592627 0.52400011 7042437
0.10207764 -0.0075592636 0.52400005 6318717
0.13763024 -0.0075592636 0.52400005 662917
0.13843824 -0.0075592631 0.52400011 662916
0.13924626 -0.0075592636 0.52400005 597378
0.1057137 -0.0051485114 0.52400005 8949396
0.1065217 -0.0051485114 0.52400005 8949396
0.1057137 -0.0045458237 0.52400005 8817810
0.10652172 -0.0045458237 0.52400011 8883603
0.1057137 -0.0039431355 0.52400005 9015189
0.1065217 -0.0039431355 0.52400005 8949396
0.11439985 -0.0015323837 0.52400011 8949396
0.11520786 -0.0015323836 0.52400011 8949396
0.11439985 -0.00072879973 0.52400005 9015189
0.11520786 -0.00072879973 0.52400005 9080982
0.12066195 -0.00032700776 0.52400005 8817810
0.12146997 -0.00032700776 0.52400005 8686484
0.1297521 -0.00032700776 0.52400005 1318503
0.13056011 -0.00032700776 0.52400005 1187189
0.12066195 0.00047657618 0.52400005 8948626
0.12146996 0.00047657618 0.52400011 8883348
0.1297521 0.00047657618 0.52400011 3819112
0.13056011 0.00047657616 0.52400011 2898027
0.12291612 -0.037363037 0.52500004 335492
0.12352328 -0.037363037 0.52500004 335747
0.12433284 -0.037363037 0.52500004 401281
0.12291612 -0.036557917 0.52500004 203906
0.12352327 -0.03655792 0.52500004 269698
0.12433284 -0.036557917 0.52500004 335488
0.12858301 -0.035551526 0.52500004 269436
0.12939256 -0.035551526 0.52500004 400765
0.128583 -0.034746405 0.52500004 138364
0.12939256 -0.034746408 0.52500004 269951
0.13647617 -0.032129772 0.52500004 204154
0.13748811 -0.032129772 0.52500004 335229
0.13647617 -0.031525932 0.52500004 400762
0.13748811 -0.031525932 0.52500004 466558
0.13647617 -0.030922098 0.52500004 400769
0.13748811 -0.030922098 0.52500004 466560
0.10267723 -0.028506747 0.52500004 3950693
0.10348678 -0.028506747 0.52500004 1451085
0.10267723 -0.027701627 0.52500004 2831703
0.10348678 -0.027701626 0.52500004 1385294
0.1014629 -0.025487551 0.52500004 5134963
0.10227245 -0.025487555 0.52500004 1253191
0.14355977 -0.025487555 0.52500004 466049
0.14436933 -0.025487555 0.52500004 662911
0.1014629 -0.024682434 0.52500004 3885419
0.10227245 -0.024682436 0.52500004 1056585
0.14355977 -0.024481157 0.52500004 466045
0.14436933 -0.024481157 0.52500004 728444
0.1435598 -0.02347476 0.52500004 334975
0.14436933 -0.023474758 0.52500004 400769
0.14355977 -0.022468362 0.52500004 465793
0.14436933 -0.022468364 0.52500004 531331
0.14355977 -0.021461964 0.52500004 596866
0.14436933 -0.021461966 0.52500004 596867
0.09964139 -0.02025429 0.52500004 5925254
0.10045096 -0.02025429 0.52500004 2434907
0.1435598 -0.020656846 0.52500004 662399
0.14436933 -0.020656848 0.52500004 728450
0.09964139 -0.019449173 0.52500004 4543605
0.10045095 -0.019449173 0.52500004 1974872
0.14173828 -0.016429981 0.52500004 401279
0.14254785 -0.016429981 0.52500004 532351
0.14173828 -0.015624864 0.52500004 401535
0.14254785 -0.015624864 0.52500004 532351
0.13971439 -0.012001835 0.52500004 336003
0.14052394 -0.012001835 0.52500004 532354
0.14113112 -0.012001835 0.52500004 663169
0.13971439 -0.011397997 0.52500004 335494
0.14052394 -0.011397997 0.52500004 532099
0.14113112 -0.011397997 0.52500004 728450
0.099641398 -0.0103916 0.52500004 1845847
0.10045095 -0.0103916 0.52500004 1780054
0.13991678 -0.010794159 0.52500004 466562
0.14052394 -0.010794159 0.52500004 531587
0.14113112 -0.010794159 0.52500004 728198
0.099641405 -0.0095864823 0.52500004 2698839
0.10045096 -0.0095864832 0.52500004 2566996
0.099641398 -0.0087813651 0.52500004 5001321
0.10045095 -0.0087813651 0.52500004 3422289
0.10267723 -0.0065672919 0.52500004 8817810
0.10348678 -0.0065672919 0.52500004 8686222
0.13789289 -0.0065672919 0.52500004 794503
0.13850006 -0.0065672919 0.52500004 728710
0.13930961 -0.0065672919 0.52500004 793989
0.10267723 -0.0057621747 0.52500004 9277079
0.10348678 -0.0057621747 0.52500004 9146006
0.13789289 -0.0057621747 0.52500004 598666
0.13850006 -0.0057621747 0.52500004 532871
0.13930961 -0.0057621747 0.52500004 859014
0.10976084 -0.0033468225 0.52500004 9342867
0.11057039 -0.0033468225 0.52500004 9211283
0.10976084 -0.002541705 0.52500004 9277328
0.11057039 -0.002541705 0.52500004 9277073
0.11947551 -0.0003276318 0.52500004 9146002
0.12028506 -0.0003276318 0.52500004 8949139
0.13161884 -0.0003276318 0.52500004 1055876
0.13242839 -0.0003276318 0.52500004 1187976
0.11947551 0.00047748571 0.52500004 9211538
0.12028506 0.00047748568 0.52500004 9079954
0.13161884 0.00047748568 0.52500004 2305396
0.13242839 0.00047748568 0.52500004 1712752
0.041432165 -0.04227411 0.52600002 11347243
0.042446032 -0.042274106 0.52600002 10954026
0.044676553 -0.04227411 0.52600002 10757425
0.04548765 -0.04227411 0.52600002 10625836
0.046095975 -0.04227411 0.52600002 10626084
0.041432165 -0.041467458 0.52600002 11347244
0.042446032 -0.041467458 0.52600002 10954027
0.044676553 -0.041467458 0.52600002 10757421
0.045487646 -0.041467458 0.52600002 10625834
0.046095978 -0.041467458 0.52600002 10626088
0.035957254 -0.040459149 0.52600002 10887978
0.036565579 -0.040459149 0.52600002 10757162
0.037579451 -0.040459145 0.52600002 10625831
0.038593322 -0.040459149 0.52600002 10626088
0.039404418 -0.040459149 0.52600002 10823210
0.040418293 -0.040459149 0.52600002 11151147
0.041432165 -0.040459149 0.52600002 11281450
0.042446032 -0.040459149 0.52600002 10888490
0.043459907 -0.040459149 0.52600002 10692139
0.044473778 -0.040459149 0.52600002 10692396
0.04548765 -0.040459149 0.52600002 10560810
0.046095975 -0.040459149 0.52600002 10560810
0.035957254 -0.039450832 0.52600002 10821934
0.036565576 -0.039450828 0.52600002 10691116
0.037579447 -0.039450832 0.52600002 10560040
0.038593322 -0.039450828 0.52600002 10560295
0.039404418 -0.039450832 0.52600002 10757417
0.040418293 -0.039450835 0.52600002 11085355
0.041432161 -0.039450835 0.52600002 11347243
0.042446036 -0.039450832 0.52600002 10954027
0.043459907 -0.039450832 0.52600002 10692139
0.044473775 -0.039450835 0.52600002 10692140
0.045487646 -0.039450832 0.52600002 10560554
0.046095978 -0.039450835 0.52600002 10692140
0.11341707 -0.039047506 0.52600002 333678
0.11443093 -0.039047506 0.52600002 399993
0.11544481 -0.039047506 0.52600002 663681
0.11645868 -0.039047506 0.52600002 992128
0.11747255 -0.039047506 0.52600002 992130
0.11848643 -0.039047506 0.52600002 861066
0.1195003 -0.039047506 0.52600002 795273
0.12051417 -0.039047506 0.52600002 598149
0.12132527 -0.039047506 0.52600002 466563
0.037782222 -0.038442515 0.52600002 10625322
0.038593322 -0.038442515 0.52600002 10625578
0.039404418 -0.038442515 0.52600002 10756907
0.040418293 -0.038442519 0.52600002 11150635
0.041432165 -0.038442515 0.52600002 11347243
0.042446032 -0.038442515 0.52600002 11019566
0.043459907 -0.038442515 0.52600002 10757677
0.044271003 -0.038442515 0.52600002 10757421
0.11341707 -0.038442519 0.52600002 202353
0.11443093 -0.038442515 0.52600002 334716
0.1154448 -0.038442515 0.52600002 598145
0.11645868 -0.038442515 0.52600002 926593
0.11747255 -0.038442515 0.52600002 861058
0.11848643 -0.038442515 0.52600002 795528
0.11950029 -0.038442515 0.52600002 663687
0.12051417 -0.038442515 0.52600002 597894
0.12132527 -0.038442515 0.52600002 532357
0.037782222 -0.037635867 0.52600002 10691116
0.038593322 -0.037635867 0.52600002 10691115
0.039404418 -0.037635867 0.52600002 10822444
0.040418293 -0.037635867 0.52600002 11215916
0.041432165 -0.037635867 0.52600002 11347243
0.042503972 -0.03754944 0.52600002 11019824
0.043459907 -0.037434202 0.52600002 10888752
0.044271003 -0.037434202 0.52600002 10822958
0.10855048 -0.037232541 0.52600002 1253977
0.11341707 -0.037837528 0.52600002 137078
0.11443093 -0.037837528 0.52600002 334976
0.11544481 -0.037837528 0.52600002 532865
0.11645868 -0.037837528 0.52600002 861314
0.11747255 -0.037837528 0.52600002 795522
0.11848643 -0.037837528 0.52600002 795527
0.1195003 -0.037837528 0.52600002 663687
0.12051417 -0.037837528 0.52600002 597894
0.12132527 -0.037837528 0.52600002 532358
0.12558353 -0.037232541 0.52600002 466558
0.12639463 -0.037232541 0.52600002 400765
0.042851582 -0.036425889 0.52600002 10954290
0.043459907 -0.036425892 0.52600002 10888752
0.044271003 -0.036425892 0.52600002 10822958
0.10855048 -0.036425892 0.52600002 1188183
0.12558353 -0.036425892 0.52600002 400766
0.12639463 -0.036425889 0.52600002 400765
0.042851582 -0.035820901 0.52600002 10954290
0.043459907 -0.035820901 0.52600002 10888752
0.044271003 -0.035820901 0.52600002 10822958
0.10652274 -0.035417572 0.52600002 1384275
0.10733383 -0.035417575 0.52600002 1516115
0.13045011 -0.035417575 0.52600002 401023
0.13126121 -0.035417575 0.52600002 335748
0.10469776 -0.034207601 0.52600002 3884901
0.10550886 -0.034207601 0.52600002 1779284
0.10652274 -0.034610927 0.52600002 1516110
0.10733383 -0.034610927 0.52600002 1516114
0.13045011 -0.034610927 0.52600002 335744
0.13126121 -0.034610927 0.52600002 401539
0.10469776 -0.03360261 0.52600002 3095140
0.10550886 -0.03360261 0.52600002 1516112
0.10469776 -0.032795958 0.52600002 2173798
0.10550886 -0.032795958 0.52600002 1384779
0.14058883 -0.030376008 0.52600002 335743
0.14139993 -0.030376008 0.52600002 335746
0.14058883 -0.029569356 0.52600002 335744
0.14139993 -0.029569356 0.52600002 335746
0.14180548 -0.028561043 0.52600002 269696
0.14241381 -0.028561043 0.52600002 269949
0.14302212 -0.028561043 0.52600002 269947
0.14180548 -0.027754391 0.52600002 269947
0.14241381 -0.027754391 0.52600002 269946
0.14302212 -0.027754391 0.52600002 269945
0.099628411 -0.022309497 0.52600002 8095635
0.1004395 -0.022309497 0.52600002 6055293
0.099628411 -0.021502845 0.52600002 7701652
0.1004395 -0.021502845 0.52600002 5068149
0.099628411 -0.020897858 0.52600002 7307155
0.10043951 -0.020897858 0.52600002 4146794
0.14363045 -0.020091206 0.52600002 662653
0.14444155 -0.020091206 0.52600002 531069
0.14363045 -0.019486219 0.52600002 531579
0.14444155 -0.019486219 0.52600002 596090
0.14363045 -0.01888123 0.52600002 597370
0.14444155 -0.01888123 0.52600002 793461
0.098411761 -0.015452963 0.52600002 5266555
0.099222861 -0.015452962 0.52600002 1845077
0.14180548 -0.0152513 0.52600002 401535
0.14241381 -0.0152513 0.52600002 401278
0.14302212 -0.0152513 0.52600002 532351
0.098411754 -0.014444649 0.52600002 3753323
0.099222861 -0.014444649 0.52600002 1647698
0.14180548 -0.014444649 0.52600002 139394
0.14241381 -0.014444649 0.52600002 204422
0.14302212 -0.014444649 0.52600002 335499
0.098411761 -0.013436335 0.52600002 2700384
0.099222861 -0.013436336 0.52600002 1713491
0.098411761 -0.012629684 0.52600002 2305627
0.099222861 -0.012629684 0.52600002 1713748
0.14058883 -0.010209731 0.52600002 531583
0.14139993 -0.010209732 0.52600002 727687
0.14058883 -0.0094030807 0.52600002 662399
0.14139993 -0.0094030797 0.52600002 661381
0.14058883 -0.0087980917 0.52600002 859523
0.14139993 -0.0087980917 0.52600002 858757
0.10469776 -0.0051681618 0.52600002 9211286
0.10550886 -0.0051681618 0.52600002 8883089
0.10469776 -0.0045631733 0.52600002 9277079
0.10550886 -0.0045631733 0.52600002 9080468
0.10469776 -0.0039581852 0.52600002 9277079
0.10550886 -0.0039581852 0.52600002 9212054
0.10855048 -0.0033531971 0.52600002 9080466
0.10936158 -0.0033531971 0.52600002 9211280
0.13673612 -0.0033531971 0.52600002 728971
0.13754722 -0.0033531971 0.52600002 860044
0.13815553 -0.0035548599 0.52600002 728971
0.10855048 -0.0025465463 0.52600002 9211537
0.10936158 -0.0025465463 0.52600002 9277327
0.13673612 -0.0025465465 0.52600002 728714
0.13754722 -0.0025465465 0.52600002 728961
0.13815553 -0.0025465463 0.52600002 663416
0.13491115 -0.0015382324 0.52600002 467335
0.13551949 -0.0015382324 0.52600002 532871
0.13633059 -0.0015382324 0.52600002 728710
0.1178781 -0.00032825588 0.52600002 9212056
0.11848643 -0.00032825588 0.52600002 9342866
0.11909475 -0.00032825588 0.52600002 9277073
0.13491115 -0.00073158141 0.52600002 598921
0.13551947 -0.00073158141 0.52600002 532871
0.13633057 -0.00073158141 0.52600002 794503
0.1178781 0.00047839514 0.52600002 9277334
0.11848643 0.00047839517 0.52600002 9342867
0.11909475 0.00047839514 0.52600002 9277073
0.1178781 0.0012850462 0.52600002 9342870
0.11848643 0.0012850462 0.52600002 9342868
0.11929752 0.0012850462 0.52600002 9277075
0.1265974 0.001486709 0.52600002 9277075
0.1274085 0.001486709 0.52600002 9408659
0.12801683 0.0014867089 0.52600002 9408659
0.1265974 0.0024950227 0.52600002 9803419
0.1274085 0.0024950227 0.52600002 10197667
0.12801683 0.0024950227 0.52600002 10394792
0.034669153 -0.045471296 0.528 10297637
0.035483338 -0.045471296 0.528 10297641
0.036501061 -0.045471296 0.52799994 10428461
0.037518792 -0.045471292 0.528 10691629
0.038536515 -0.045471292 0.52799994 11151662
0.039554246 -0.045471296 0.528 11151148
0.040571973 -0.045471292 0.52799994 11216426
0.0415897 -0.045471292 0.528 11216425
0.042403877 -0.045471292 0.528 11151146
0.043421607 -0.045471292 0.52799994 11282218
0.044439338 -0.045471292 0.528 11348010
0.045457061 -0.045471296 0.52799994 11282220
0.046271242 -0.045471292 0.528 11282218
0.03141243 -0.044054285 0.528 10428458
0.032430153 -0.044054285 0.528 10428454
0.033447884 -0.044054285 0.528 10428709
0.034581922 -0.044401307 0.52799994 10428709
0.035483338 -0.044459146 0.52799994 10428456
0.036501061 -0.044661578 0.52799994 10428710
0.037518792 -0.044661574 0.528 10757410
0.038536519 -0.044661578 0.52799994 11282725
0.039554246 -0.044661574 0.528 11479082
0.040571969 -0.04466157 0.52799994 11478825
0.0415897 -0.044661574 0.528 11478825
0.042403877 -0.044661574 0.528 11151144
0.043421607 -0.04466157 0.52799994 11216934
0.044439334 -0.044661574 0.528 11217191
0.045457061 -0.044661578 0.52799994 11150899
0.04640694 -0.044459146 0.528 11085366
0.047492515 -0.044054285 0.528 10954288
0.03141243 -0.043446995 0.528 10362666
0.032430153 -0.043446999 0.52799994 10362918
0.033447884 -0.043446999 0.528 10428709
0.034465611 -0.043446999 0.52799994 10428709
0.035483338 -0.043446999 0.528 10428455
0.036431935 -0.043566756 0.52700001 10428458
0.037447736 -0.043566752 0.52700001 10756908
0.038463533 -0.043566756 0.52700001 11282477
0.039479334 -0.04356676 0.52700001 11610668
0.040495131 -0.04356676 0.52700001 11610667
0.041510932 -0.04356676 0.52700001 11478824
0.042526729 -0.04356676 0.52700001 11085607
0.043542534 -0.04356676 0.52700001 11020329
0.044558331 -0.04356676 0.52700001 10954546
0.045574129 -0.043566752 0.52700001 10888506
0.046381496 -0.043518852 0.52740002 10888501
0.047492515 -0.043446999 0.52799994 10888493
0.03141243 -0.042434853 0.52799994 10428201
0.032430157 -0.042434845 0.52799994 10493990
0.033447884 -0.042434853 0.52799994 10494245
0.034388695 -0.042527556 0.52771425 10494245
0.035449736 -0.042597093 0.52750003 10494247
0.036431935 -0.042556524 0.52700001 10494250
0.037447736 -0.042556524 0.52700001 10756910
0.038463533 -0.042556524 0.52700001 11150900
0.039479334 -0.042556524 0.52700001 11544885
0.040495131 -0.042556524 0.52700001 11544881
0.041510932 -0.042758569 0.52700001 11413034
0.042526733 -0.042758569 0.52700001 11019817
0.043542534 -0.042556524 0.52700001 10888747
0.04445675 -0.042657547 0.52700001 10888754
0.045574129 -0.042758569 0.52700001 10888503
0.046612032 -0.042576808 0.52724999 10691371
0.0475378 -0.042645615 0.52759999 10757162
0.048510242 -0.04223242 0.528 10757162
0.049324423 -0.042232417 0.528 10757162
0.03141243 -0.041422702 0.528 10559784
0.032430157 -0.041422699 0.52799994 10625576
0.033447884 -0.041422699 0.528 10691369
0.034467254 -0.041515395 0.52724999 10691367
0.035416134 -0.041546296 0.52700001 10691368
0.036431935 -0.041546289 0.52700001 10691369
0.037447736 -0.041546296 0.52700001 10691370
0.038463533 -0.041546293 0.52700001 10954286
0.039479334 -0.041546296 0.52700001 11151152
0.040495131 -0.041546293 0.52700001 11413296
0.043542534 -0.041546296 0.52700001 10757675
0.04415201 -0.041546296 0.52700001 10757674
0.046793088 -0.041546296 0.52700001 10626088
0.047605727 -0.041546289 0.52700001 10626088
0.048510242 -0.041422702 0.528 10626088
0.049324423 -0.041422702 0.528 10626088
0.029784063 -0.040410552 0.52799994 10691370
0.030598247 -0.040410552 0.52799994 10888235
0.03141243 -0.040410552 0.52799994 11019564
0.03236372 -0.04044193 0.52774996 11019564
0.033587694 -0.040536061 0.52700001 11019564
0.034603499 -0.040536061 0.52700001 10887978
0.035416134 -0.040536061 0.52700001 10887978
0.046793088 -0.040536061 0.52700001 10560553
0.047605731 -0.040536061 0.52700001 10691881
0.048510242 -0.040410552 0.52799994 10757674
0.049324423 -0.040410552 0.52799994 10757675
0.029784065 -0.039398406 0.528 10954540
0.030598247 -0.039398406 0.528 11020076
0.03149863 -0.039313376 0.52740002 11085357
0.032524522 -0.039483484 0.52733332 11019564
0.033587694 -0.039525833 0.52700001 10887725
0.034603495 -0.039525833 0.52700001 10821934
0.035416137 -0.039525833 0.52700001 10821934
0.046793088 -0.039525833 0.52700001 10692139
0.047605727 -0.039525833 0.52700001 10757674
0.048510242 -0.039398406 0.528 10823467
0.049324423 -0.039398406 0.528 10823468
0.11059159 -0.039195977 0.528 1385046
0.11150344 -0.039158858 0.52750003 1319503
0.11241373 -0.03912174 0.52700001 859482
0.12257173 -0.03912174 0.52700001 466561
0.12338437 -0.03912174 0.52700001 466560
0.12443268 -0.039195977 0.528 400764
0.12524685 -0.039195977 0.528 596860
0.029784065 -0.038588688 0.528 10954542
0.030598247 -0.038588688 0.528 10954539
0.0315561 -0.038515601 0.52700001 10888488
0.032571897 -0.038515601 0.52700001 10822439
0.033587698 -0.038515601 0.52700001 10756649
0.034603499 -0.038515601 0.52700001 10756651
0.035416134 -0.038515601 0.52700001 10756396
0.036431935 -0.038515601 0.52700001 10690861
0.037244573 -0.038515601 0.52700001 10625324
0.044964649 -0.038515601 0.52700001 10822957
0.045574129 -0.038515601 0.52700001 10757164
0.04658993 -0.038515601 0.52700001 10757420
0.047605731 -0.038515601 0.52700001 10757930
0.048510246 -0.038588688 0.528 10823720
0.049324423 -0.038588688 0.528 10823723
0.11059159 -0.038588688 0.52799994 1253719
0.11150343 -0.038552143 0.52750003 1187922
0.11241373 -0.038515601 0.52700001 727900
0.12257173 -0.038515601 0.52700001 466819
0.12338437 -0.038515601 0.52700001 466819
0.12443268 -0.038588688 0.52799994 401024
0.12524685 -0.038588688 0.528 597118
0.029784067 -0.037576541 0.52799994 10757422
0.030598246 -0.037576538 0.52799994 10822957
0.03152018 -0.037573479 0.52724999 10757163
0.032511149 -0.037477814 0.52742857 10691115
0.033552743 -0.037573483 0.52724999 10691113
0.03452564 -0.037457701 0.52714282 10691368
0.035416137 -0.037505373 0.52700001 10691113
0.036431935 -0.03750537 0.52700001 10691117
0.037346154 -0.037404351 0.52700001 10691118
0.038463537 -0.03710128 0.52700001 10691115
0.039479334 -0.03710128 0.52700001 10822188
0.040495131 -0.03710128 0.52700001 11215916
0.041510932 -0.03710128 0.52700001 11413036
0.042323574 -0.03710128 0.52700001 11150896
0.044964653 -0.03750537 0.52700001 10888494
0.045574129 -0.037505373 0.52700001 10888494
0.046550192 -0.037564684 0.527125 10822958
0.047557209 -0.037477817 0.52742857 10757934
0.048510242 -0.03777897 0.528 10758185
0.049324423 -0.03777897 0.528 10758188
0.11059159 -0.037981398 0.528 1253977
0.11150344 -0.037945431 0.52750003 1122391
0.11241373 -0.037909463 0.52700001 662368
0.12257173 -0.037909463 0.52700001 467076
0.12338437 -0.037909463 0.52700001 467078
0.12443268 -0.037981398 0.528 401283
0.12524685 -0.037981398 0.528 597376
0.12744756 -0.037303325 0.52700001 269179
0.12826021 -0.037303325 0.52700001 203386
0.029784065 -0.036564395 0.528 10625837
0.030598247 -0.036564395 0.528 10691376
0.03141243 -0.036564395 0.528 10756914
0.032430157 -0.036564395 0.52799994 10756915
0.033447884 -0.036564395 0.528 10756913
0.034421835 -0.03651822 0.52733332 10691368
0.035416134 -0.036495142 0.52700001 10691113
0.036431935 -0.036495138 0.52700001 10691117
0.037447736 -0.036495142 0.52700001 10691118
0.038463533 -0.036495138 0.52700001 10691115
0.039479334 -0.036495142 0.52700001 10756651
0.040495131 -0.036495138 0.52700001 11150123
0.041510932 -0.036495138 0.52700001 11413036
0.042323574 -0.036495142 0.52700001 11150896
0.044964649 -0.036495142 0.52700001 10888494
0.045574129 -0.036495142 0.52700001 10888494
0.046430971 -0.036529768 0.52750003 10888494
0.047492515 -0.036564395 0.52799994 10757681
0.12744756 -0.036495138 0.52700001 334972
0.12826021 -0.036495142 0.52700001 334972
0.029784065 -0.035957105 0.528 10625836
0.030598247 -0.035957105 0.528 10625836
0.03141243 -0.035957105 0.528 10625836
0.03259299 -0.03571419 0.528 10560298
0.03344788 -0.035552245 0.52799994 10560041
0.034451023 -0.035537113 0.52777773 10625830
0.035460938 -0.035529543 0.52766663 10625831
0.036478024 -0.035529543 0.52766663 10625577
0.037495106 -0.035529543 0.52766663 10560042
0.038463537 -0.03548491 0.52700001 10560039
0.039479334 -0.03548491 0.52700001 10625832
0.040495135 -0.03548491 0.52700001 10953770
0.041510932 -0.03548491 0.52700001 11413293
0.042475939 -0.035434399 0.52700001 11216433
0.043542534 -0.035282865 0.52700001 11019824
0.044477068 -0.035404094 0.52700001 10888494
0.045486327 -0.035484612 0.52774996 10888494
0.046351105 -0.035636432 0.52775002 10888494
0.047492515 -0.035957105 0.528 10757930
0.1325745 -0.035552245 0.52799994 335748
0.1335922 -0.035552248 0.52799994 335743
0.032837246 -0.034540094 0.528 10494761
0.033447884 -0.034540094 0.528 10494760
0.034465607 -0.034540098 0.52799994 10560294
0.035483338 -0.034540094 0.528 10560294
0.036501061 -0.034540098 0.52799994 10560294
0.037518792 -0.034540098 0.528 10494758
0.038463533 -0.034474682 0.52700001 10494758
0.039479334 -0.034474678 0.52700001 10560295
0.040495131 -0.034474682 0.52700001 10888234
0.041510932 -0.034474678 0.52700001 11348015
0.042526733 -0.034474682 0.52700001 11282223
0.043542534 -0.034474678 0.52700001 11085614
0.044355169 -0.034474678 0.52700001 10954285
0.045457061 -0.034540098 0.52799994 10954286
0.046271242 -0.034540094 0.528 11020079
0.13257448 -0.034742527 0.528 336003
0.13366006 -0.034607571 0.528 270465
0.13557397 -0.034272633 0.52700001 138622
0.13658977 -0.034272633 0.52700001 204154
0.032837246 -0.033932809 0.528 10560559
0.033447884 -0.033932809 0.528 10494763
0.034465607 -0.033932809 0.528 10560296
0.035483338 -0.033932809 0.528 10560295
0.036501061 -0.033932809 0.528 10560296
0.037518792 -0.033932809 0.528 10495017
0.038536515 -0.033527948 0.52799994 10494766
0.039554246 -0.033527952 0.52799994 10494509
0.040571973 -0.033527944 0.52799994 10822444
0.0415897 -0.033527948 0.52799994 11282221
0.042403877 -0.033527948 0.52799994 11348264
0.043014515 -0.033527948 0.528 11216935
0.044642881 -0.033932809 0.528 11020334
0.045457061 -0.033932809 0.528 11020334
0.046271242 -0.033932809 0.528 11020334
0.13379575 -0.033932809 0.528 139394
0.13557395 -0.033464447 0.52700001 138366
0.13658977 -0.033464447 0.52700001 204154
0.038536519 -0.032515801 0.52799994 10625836
0.039554246 -0.032515801 0.528 10625579
0.040571969 -0.032515805 0.52799994 10822186
0.0415897 -0.032515801 0.528 11282220
0.042403877 -0.032515801 0.528 11348261
0.043014515 -0.032515801 0.528 11282984
0.13557397 -0.032656264 0.52700001 72573
0.13658977 -0.032656264 0.52700001 204154
0.13882452 -0.03225217 0.52700001 400767
0.13943401 -0.03225217 0.52700001 466560
0.14004348 -0.03225217 0.52700001 466560
0.13882452 -0.031443983 0.52700001 466558
0.13943401 -0.031443987 0.52700001 466558
0.14004348 -0.031443987 0.52700001 466558
0.10163559 -0.029074499 0.528 8095369
0.10244977 -0.029074499 0.528 7700867
0.10163559 -0.028467212 0.528 7964298
0.10244977 -0.02846721 0.52799994 7174276
0.10164271 -0.027555348 0.52733332 7766921
0.10245343 -0.027677178 0.52759999 6186874
0.14370036 -0.027403062 0.52700001 400761
0.144513 -0.027403062 0.52700001 466044
0.10164627 -0.026594879 0.52700001 7372169
0.1024589 -0.026594879 0.52700001 3949923
0.14370036 -0.026594877 0.52700001 466304
0.144513 -0.026594877 0.52700001 531841
0.09981782 -0.024170326 0.52700001 8226439
0.1004273 -0.024170326 0.52700001 8029324
0.10103678 -0.024170326 0.52700001 7635087
0.14560139 -0.02421619 0.528 335746
0.14641558 -0.02421619 0.528 335750
0.14722976 -0.02421619 0.528 727919
0.09981782 -0.023564188 0.52700001 8226445
0.1004273 -0.023564188 0.52700001 7963537
0.10103678 -0.023564188 0.52700001 5858425
0.14560139 -0.02340647 0.528 335233
0.14641558 -0.023406472 0.52799994 727933
0.14722976 -0.02340647 0.528 2435691
0.09981782 -0.02295805 0.52700001 8095119
0.1004273 -0.02295805 0.52700001 7700111
0.10103678 -0.02295805 0.52700001 5331570
0.14560139 -0.022394322 0.528 596868
0.14641558 -0.022394322 0.52799994 1384574
0.14722976 -0.022394322 0.528 4935549
0.098395698 -0.018513033 0.52700001 7964298
0.099208333 -0.018513033 0.52700001 6845075
0.098395698 -0.017502803 0.52700001 7833226
0.09920834 -0.017502803 0.52700001 5398150
0.14397302 -0.017333586 0.528 794239
0.14458367 -0.017333586 0.528 530038
0.14519431 -0.017333586 0.528 1450368
0.098395698 -0.016492574 0.52700001 7109503
0.099208333 -0.016492572 0.52700001 3687279
0.14397302 -0.016523866 0.528 860033
0.14458366 -0.016523866 0.52799994 925304
0.14519431 -0.016523866 0.528 3096206
0.14397302 -0.015714148 0.528 1056888
0.14458367 -0.015714148 0.528 1649003
0.14519431 -0.015714148 0.528 4346493
0.1424814 -0.01346188 0.52700001 204161
0.14329404 -0.01346188 0.52700001 268929
0.098395698 -0.012047556 0.52700001 1779284
0.09920834 -0.012047556 0.52700001 1648468
0.14249811 -0.012507876 0.52724999 269691
0.14332822 -0.012362056 0.52750003 1780347
0.098395698 -0.011441419 0.52700001 2108251
0.09920834 -0.011441419 0.52700001 1385810
0.1425482 -0.011463128 0.528 467328
0.1433624 -0.011463128 0.528 2436723
0.098395698 -0.010633233 0.52700001 2239056
0.09920834 -0.010633234 0.52700001 2108245
0.1425482 -0.01065341 0.528 1253240
0.1433624 -0.01065341 0.528 3490427
0.10041433 -0.0082242554 0.52799994 7172735
0.1012285 -0.0082242554 0.528 5988461
0.14065295 -0.008208679 0.52700001 924800
0.1414656 -0.008208679 0.52700001 990587
0.10041431 -0.007414537 0.52799994 8817812
0.1012285 -0.0074145375 0.528 8949398
0.14065295 -0.007400495 0.52700001 924800
0.1414656 -0.007400495 0.52700001 1254012
0.10164626 -0.0065923105 0.52700001 8948632
0.1024589 -0.0065923105 0.52700001 9146009
0.10164626 -0.005784126 0.52700001 9080216
0.1024589 -0.005784126 0.52700001 9080216
0.10346749 -0.0051878127 0.528 9277079
0.10428168 -0.0051878127 0.528 9211286
0.13862136 -0.0051779873 0.52700001 467079
0.13943401 -0.0051779873 0.52700001 662917
0.14004348 -0.0051779873 0.52700001 1056136
0.10346749 -0.0045805243 0.528 9342872
0.10428168 -0.0045805243 0.528 9277079
0.13862136 -0.004571849 0.52700001 598151
0.13943401 -0.004571849 0.52700001 925317
0.14004348 -0.004571849 0.52700001 858239
0.10346749 -0.0039732358 0.528 9342872
0.10428168 -0.0039732358 0.528 9277079
0.10692777 -0.0033659469 0.528 9015189
0.1075384 -0.0033659472 0.528 8949396
0.10814904 -0.0033659469 0.528 9080466
0.13882452 -0.0039657108 0.52700001 859782
0.13943401 -0.0039657108 0.52700001 1253509
0.14004348 -0.0039657108 0.52700001 1252479
0.10692777 -0.002556229 0.528 9212052
0.1075384 -0.002556229 0.528 9146259
0.10814904 -0.002556229 0.528 9146257
0.11668009 -0.00032887992 0.52700001 9212054
0.11749274 -0.00032887992 0.52700001 9212055
0.13374552 -0.00032887992 0.52700001 991105
0.13455817 -0.00032887992 0.52700001 794754
0.13516764 -0.00032887992 0.52700001 795273
0.11668009 0.00047930467 0.52700001 9277334
0.11749273 0.00047930467 0.52700001 9277334
0.13374552 0.00047930467 0.52700001 1515120
0.13455817 0.00047930467 0.52700001 1384054
0.13516764 0.00047930467 0.52700001 1450366
0.11668009 0.0012874892 0.52700001 9342870
0.11749274 0.0012874892 0.52700001 9342870
0.12199013 0.0014923618 0.528 9211284
0.12260076 0.0014923618 0.528 9211285
0.12346215 0.0014904775 0.52733332 9277079
0.12440017 0.0014895354 0.52700001 9342872
0.12541598 0.0014895354 0.52700001 9277076
0.1262286 0.0014895354 0.52700001 9342868
0.12866652 0.0014895354 0.52700001 9671831
0.12947917 0.0014895354 0.52700001 10132383
0.13049497 0.0014895354 0.52700001 10066593
0.1313076 0.0014895354 0.52700001 9606045
0.1325745 0.0014923619 0.52799994 8224653
0.1335623 0.0014504101 0.52739996 5265519
0.13455817 0.0012874892 0.52700001 1714513
0.13516764 0.0012874892 0.52700001 1189211
0.12199012 0.0025045096 0.528 9277079
0.12260076 0.0025045096 0.52799994 9277079
0.12346215 0.0025013473 0.52733332 9342872
0.12440017 0.0024997664 0.52700001 9408665
0.12541598 0.0024997662 0.52700001 9474456
0.1262286 0.0024997664 0.52700001 9737626
0.12866652 0.0024997659 0.52700001 10460585
0.12947917 0.0024997662 0.52700001 10722987
0.13049497 0.0024997662 0.52700001 10854828
0.1313076 0.0024997664 0.52700001 10855338
0.1325745 0.0025045094 0.52799994 10724263
0.1335922 0.0025045096 0.52799994 10264740
0.032899439 -0.04555741 0.52900004 10362918
0.033511229 -0.045557413 0.52900004 10362918
0.034123026 -0.04555741 0.52900004 10297638
0.046766739 -0.04555741 0.52900004 11282218
0.047582462 -0.04555741 0.52900004 11282218
0.032899439 -0.044746161 0.52900004 10428709
0.033511229 -0.044746161 0.52900004 10428709
0.034123026 -0.044746161 0.52900004 10428711
0.046766739 -0.044746161 0.52900004 11150901
0.047582462 -0.044746164 0.52900004 11085613
0.048602119 -0.04413772 0.52900004 10954541
0.049417838 -0.04413772 0.52900004 10888748
0.050029635 -0.04413772 0.52900004 10954541
0.048602119 -0.04352928 0.52900004 10888748
0.049417838 -0.04352928 0.52900004 10888748
0.050029635 -0.04352928 0.52900004 10888748
0.029636545 -0.042312406 0.52900004 10494253
0.030452268 -0.042312402 0.52900004 10428460
0.048602119 -0.042920843 0.52900004 10757162
0.049417838 -0.042920843 0.52900004 10757162
0.050029635 -0.042718031 0.52900004 10888748
0.029636545 -0.041501153 0.52900004 10494250
0.030452268 -0.041501153 0.52900004 10493995
0.12956269 -0.037444893 0.52900004 137593
0.13037841 -0.037444893 0.52900004 203386
0.12956269 -0.036633644 0.52900004 269179
0.13037841 -0.036633641 0.52900004 269179
0.031471923 -0.035416763 0.52900004 10691882
0.032287646 -0.035416763 0.52900004 10625833
0.046766739 -0.035416767 0.52900004 10954287
0.047582462 -0.035416763 0.52900004 10823723
0.031471923 -0.034605511 0.52900004 10692140
0.032287646 -0.034605511 0.52900004 10626091
0.046766739 -0.034605511 0.52900004 11020079
0.047582462 -0.034605511 0.52900004 10823723
0.031471923 -0.033997074 0.52900004 10757938
0.032287646 -0.033997074 0.52900004 10626352
0.034734815 -0.033388637 0.52900004 10560043
0.035550542 -0.033388637 0.52900004 10560043
0.036570195 -0.033388637 0.52900004 10560045
0.037589848 -0.033388637 0.52900004 10494766
0.043707777 -0.033591449 0.52900004 11151656
0.044482715 -0.03351032 0.52900004 11020329
0.046766739 -0.033997074 0.52900004 11020334
0.047582462 -0.033997074 0.52900004 10889516
0.13771993 -0.033591449 0.52900004 269947
0.13853566 -0.033591446 0.52900004 335229
0.034734815 -0.032577384 0.52900004 10560043
0.035550542 -0.032577384 0.52900004 10625836
0.036570195 -0.032577384 0.52900004 10625836
0.037589848 -0.032577384 0.52900004 10625836
0.043707777 -0.032577384 0.52900004 11282983
0.0445235 -0.032577384 0.52900004 11151399
0.13771993 -0.032780197 0.52900004 269947
0.13853563 -0.032780197 0.52900004 335229
0.14261426 -0.030549254 0.52900004 270202
0.14342999 -0.030549252 0.52900004 270202
0.14261426 -0.029738002 0.52900004 270202
0.14342999 -0.029738002 0.52900004 270202
0.14444965 -0.029129565 0.52900004 270204
0.14546929 -0.029129565 0.52900004 466555
0.14444965 -0.028521124 0.52900004 400763
0.14546929 -0.028521126 0.52900004 400763
0.14444965 -0.027912686 0.52900004 400761
0.14557126 -0.02781128 0.52900004 531581
0.10040057 -0.025478931 0.52900004 8619916
0.10121629 -0.025478931 0.52900004 8094608
0.10040057 -0.02466768 0.52900004 8358025
0.10121629 -0.02466768 0.52900004 7964052
0.14587715 -0.021422671 0.52900004 727935
0.14648896 -0.021422671 0.52900004 1253239
0.14730468 -0.021422675 0.52900004 5528463
0.14587715 -0.02061142 0.52900004 530794
0.14648896 -0.02061142 0.52900004 2240367
0.14730468 -0.02061142 0.52900004 6647434
0.098769113 -0.010065149 0.52900004 2567750
0.09958484 -0.010065149 0.52900004 2567509
0.098769121 -0.00945671 0.52900004 3949653
0.09958484 -0.00945671 0.52900004 2896210
0.098769113 -0.0088482713 0.52900004 7173503
0.09958484 -0.0088482713 0.52900004 5922423
0.14098282 -0.0064145159 0.52900004 989563
0.14159462 -0.0064145159 0.52900004 1581943
0.1422064 -0.0064145159 0.52900004 3819149
0.14098282 -0.0056032641 0.52900004 1186935
0.14159462 -0.0056032641 0.52900004 2371192
0.1422064 -0.0056032641 0.52900004 5200273
0.13771993 -0.0015470056 0.52900004 860037
0.13853565 -0.0015470056 0.52900004 794498
0.13771993 -0.00073575386 0.52900004 925575
0.13853565 -0.00073575386 0.52900004 926086
0.12079366 0.0014951882 0.52900004 9211282
0.12160938 0.0014951882 0.52900004 9211284
0.12079366 0.0025092529 0.52900004 9277079
0.12160939 0.0025092529 0.52900004 9277079
0.032961633 -0.047472298 0.53000003 10362918
0.033574581 -0.047472298 0.53000003 10362917
0.034391847 -0.047472298 0.53000003 10297635
0.035413429 -0.047472294 0.53000003 10297380
0.036435008 -0.047472294 0.53000003 10428713
0.037456591 -0.047472294 0.53000003 10954800
0.038478173 -0.047472294 0.53000003 11151920
0.039499756 -0.047472291 0.53000003 11020334
0.040521339 -0.047472298 0.53000003 10954283
0.041542921 -0.047472294 0.53000003 11019562
0.0425645 -0.047472294 0.53000003 11019562
0.043586086 -0.047472298 0.53000003 11150637
0.044607665 -0.047472298 0.53000003 11281712
0.045424927 -0.047472298 0.53000003 11346992
0.046242196 -0.047472294 0.53000003 11347241
0.032961633 -0.046456315 0.53000003 10362918
0.033574581 -0.046456315 0.53000003 10362664
0.034391847 -0.046456315 0.53000003 10297384
0.035413429 -0.046456318 0.53000003 10297388
0.036435008 -0.046456315 0.53000003 10362926
0.037456591 -0.046456318 0.53000003 10757426
0.038478173 -0.046456315 0.53000003 11151920
0.039499756 -0.046456318 0.53000003 11020334
0.040521339 -0.046456315 0.53000003 10954283
0.041542921 -0.046456318 0.53000003 11019562
0.042564504 -0.046456315 0.53000003 11085355
0.043586086 -0.046456311 0.53000003 11216176
0.044607665 -0.046456315 0.53000003 11281461
0.045424931 -0.046456315 0.53000003 11347251
0.046242196 -0.046456315 0.53000003 11413033
0.031531416 -0.045440335 0.53000003 10428456
0.032348685 -0.045440335 0.53000003 10362918
0.048693996 -0.045440331 0.53000003 11085609
0.049511258 -0.045440331 0.53000003 11085610
0.050124209 -0.045440331 0.53000003 11085611
0.02969257 -0.044221155 0.53000003 10363177
0.030509835 -0.044221152 0.53000003 10362925
0.031531416 -0.044627547 0.53000003 10428458
0.032348685 -0.044627547 0.53000003 10428455
0.048693992 -0.044627547 0.53000003 11020332
0.049511261 -0.044627547 0.53000003 10954540
0.050532836 -0.044356618 0.53000003 10954286
0.051554423 -0.044221155 0.53000003 10888494
0.02969257 -0.043408375 0.53000003 10363179
0.030509837 -0.043408375 0.53000003 10362924
0.050737157 -0.043408375 0.53000003 10888747
0.051554423 -0.043408375 0.53000003 10888747
0.050614573 -0.042351749 0.53000003 10757674
0.051554423 -0.042392388 0.53000003 10757674
0.050532844 -0.0415796 0.53000003 10757675
0.051554423 -0.041579604 0.53000003 10823469
0.028466668 -0.040563621 0.53000003 10756649
0.029283935 -0.040563624 0.53000003 10691114
0.05053284 -0.040563621 0.53000003 10692396
0.051554427 -0.040563621 0.53000003 10757935
0.11387093 -0.040563624 0.53000003 728163
0.11448387 -0.040563624 0.53000003 202611
0.11550546 -0.040563628 0.53000003 268663
0.11652704 -0.040563621 0.53000003 400502
0.11754862 -0.040563624 0.53000003 597620
0.1185702 -0.040563621 0.53000003 597371
0.11938747 -0.040563624 0.53000003 400767
0.12040905 -0.040563621 0.53000003 334973
0.028466672 -0.039547641 0.53000003 11019823
0.029283937 -0.039547641 0.53000003 11020333
0.050532836 -0.039547641 0.53000003 10757934
0.051554423 -0.039547641 0.53000003 10757935
0.10896733 -0.039344445 0.53000003 1385300
0.10958028 -0.039344445 0.53000003 1385296
0.11019323 -0.039344445 0.53000003 1385046
0.11387093 -0.039750837 0.53000003 596326
0.11448387 -0.039750837 0.53000003 202616
0.11550546 -0.039750837 0.53000003 400253
0.11652704 -0.039750837 0.53000003 663676
0.11754862 -0.039750837 0.53000003 795002
0.1185702 -0.039750837 0.53000003 794753
0.11938746 -0.039750837 0.53000003 663941
0.12040905 -0.039750837 0.53000003 598148
0.12653854 -0.039344445 0.53000003 596860
0.1273558 -0.039344445 0.53000003 465272
0.028466672 -0.038531661 0.53000003 11020337
0.029283935 -0.038531657 0.53000003 10954800
0.050532836 -0.038531657 0.53000003 10757935
0.051554423 -0.038531657 0.53000003 10757935
0.10896733 -0.038531661 0.53000003 1385561
0.10958028 -0.038531657 0.53000003 1253974
0.11019323 -0.038531657 0.53000003 1253976
0.12653854 -0.038531657 0.53000003 531325
0.1273558 -0.038531661 0.53000003 334201
0.02846667 -0.037515678 0.53000003 10888751
0.029283937 -0.037515678 0.53000003 10823215
0.048693992 -0.037312482 0.53000003 10758189
0.049511261 -0.037312482 0.53000003 10757936
0.050430682 -0.037617277 0.53000003 10692403
0.051554423 -0.037718873 0.53000003 10757935
0.10753711 -0.037515678 0.53000003 1516112
0.10835439 -0.037515678 0.53000003 1385045
0.028466672 -0.036499694 0.53000003 10757422
0.029283935 -0.036499694 0.53000003 10757422
0.048693996 -0.036499694 0.53000003 10758186
0.049511265 -0.036499698 0.53000003 10692398
0.050124209 -0.036499694 0.53000003 10758194
0.10569827 -0.036093302 0.53000003 5202276
0.10631122 -0.036093302 0.53000003 2175062
0.10753711 -0.036702894 0.53000003 1647447
0.10835438 -0.036702894 0.53000003 1385045
0.13471119 -0.036093302 0.53000003 335989
0.13552846 -0.036093302 0.53000003 270194
0.02969257 -0.035483714 0.53000003 10691625
0.030509835 -0.035483714 0.53000003 10691882
0.10569827 -0.035483714 0.53000003 4478303
0.10631122 -0.035483714 0.53000003 1977683
0.13471119 -0.035483714 0.53000003 335996
0.13552846 -0.035483714 0.53000003 204409
0.02969257 -0.034467731 0.53000003 10757421
0.030509833 -0.034467731 0.53000003 10757678
0.10447237 -0.034061339 0.53000003 7240330
0.10569827 -0.034874126 0.53000003 3688794
0.10631122 -0.034874126 0.53000003 1780304
0.13471119 -0.034467731 0.53000003 204417
0.13541171 -0.034525789 0.53000003 204417
0.031531416 -0.033451751 0.53000003 10692146
0.032552999 -0.033451755 0.53000003 10560559
0.033574581 -0.033451751 0.53000003 10494766
0.034187529 -0.033451751 0.53000003 10560043
0.045424931 -0.033451751 0.53000003 11020330
0.046242196 -0.033451751 0.53000003 11020330
0.10447237 -0.033451755 0.53000003 6713989
0.031531416 -0.032638967 0.53000003 10692393
0.032552999 -0.032638967 0.53000003 10626599
0.033574581 -0.032638967 0.53000003 10560808
0.034187529 -0.032638967 0.53000003 10560043
0.036639325 -0.032029375 0.53000003 10626090
0.037456591 -0.032029375 0.53000003 10823212
0.038478173 -0.032029375 0.53000003 10757160
0.039499756 -0.032029375 0.53000003 10756904
0.040521339 -0.032029375 0.53000003 10887976
0.041542917 -0.032029375 0.53000003 11019561
0.042564504 -0.032029375 0.53000003 11151144
0.043586086 -0.032029375 0.53000003 11414056
0.044607665 -0.032029375 0.53000003 11348264
0.045424931 -0.032638967 0.53000003 11085611
0.046242196 -0.032638967 0.53000003 11020332
0.10447237 -0.032638971 0.53000003 5924473
0.14145362 -0.032232575 0.53000003 401022
0.14227089 -0.032232575 0.53000003 269951
0.036639325 -0.031419788 0.53000003 10757675
0.037456591 -0.031419788 0.53000003 10823211
0.038478173 -0.031419788 0.53000003 10954025
0.039499756 -0.031419788 0.53000003 10888231
0.040521339 -0.031419788 0.53000003 10887975
0.041542921 -0.031419788 0.53000003 11019560
0.042564504 -0.031419788 0.53000003 11151145
0.043586086 -0.031419788 0.53000003 11479593
0.044607665 -0.031419788 0.53000003 11348265
0.14145362 -0.031419788 0.53000003 335742
0.14227089 -0.031419788 0.53000003 335746
0.036639325 -0.030810198 0.53000003 10757674
0.037456591 -0.030810198 0.53000003 10889003
0.038478173 -0.030810198 0.53000003 11019560
0.039499756 -0.030810198 0.53000003 10887974
0.040521339 -0.030810198 0.53000003 10887974
0.041542921 -0.030810198 0.53000003 11019560
0.042564504 -0.030810198 0.53000003 11151146
0.043586086 -0.030810198 0.53000003 11479594
0.044607665 -0.030810198 0.53000003 11348265
0.1024292 -0.030607 0.53000003 8226956
0.10345079 -0.030607002 0.53000003 7175306
0.10406373 -0.030607002 0.53000003 4544106
0.1024292 -0.029794216 0.53000003 8095626
0.10345079 -0.029794218 0.53000003 6648706
0.10406373 -0.029794216 0.53000003 3293274
0.14656155 -0.025527095 0.53000003 400771
0.14758313 -0.025527095 0.53000003 334462
0.14656155 -0.024714312 0.53000003 269955
0.14758313 -0.024714312 0.53000003 466043
0.14656155 -0.020243991 0.53000003 2306423
0.14758313 -0.020243991 0.53000003 7173778
0.14656155 -0.019431207 0.53000003 3358584
0.14758313 -0.019431205 0.53000003 7962513
0.1447227 -0.01536728 0.53000003 1188474
0.14553997 -0.01536728 0.53000003 4214907
0.14615291 -0.015570477 0.53000003 6845574
0.097525619 -0.014148102 0.53000003 8292754
0.098342881 -0.014148102 0.53000003 7175050
0.1447227 -0.014554494 0.53000003 1648776
0.14553995 -0.014554496 0.53000003 5661574
0.14615291 -0.014554496 0.53000003 7700618
0.097525619 -0.013538513 0.53000003 8094864
0.098342881 -0.013538513 0.53000003 6253695
0.097525604 -0.012725727 0.53000003 8094095
0.098342881 -0.012725728 0.53000003 5134708
0.14288385 -0.010084176 0.53000003 1121138
0.14349681 -0.010084176 0.53000003 2569079
0.14410976 -0.010084176 0.53000003 5069708
0.14288385 -0.0094745867 0.53000003 1055591
0.14349681 -0.0094745867 0.53000003 3490169
0.14410976 -0.0094745867 0.53000003 5859212
0.14288385 -0.008864997 0.53000003 1582180
0.14349681 -0.008864997 0.53000003 4345723
0.14410976 -0.008864997 0.53000003 6845838
0.13961479 -0.0033786972 0.53000003 990852
0.14043206 -0.003378697 0.53000003 1384064
0.13961479 -0.0025659115 0.53000003 794243
0.14043206 -0.0025659115 0.53000003 1845369
0.13655004 -0.00033075211 0.53000003 860296
0.13736731 -0.00033075211 0.53000003 926089
0.13655005 0.00048203315 0.53000003 1057150
0.13736731 0.00048203321 0.53000003 926339
0.13655004 0.0012948185 0.53000003 1647971
0.13736731 0.0012948185 0.53000003 2170993
0.035480246 -0.049394086 0.53100008 10428205
0.036503755 -0.049394086 0.53100002 10757165
0.037527267 -0.049394086 0.53100008 11217200
0.038550775 -0.049394086 0.53100002 11216687
0.039574284 -0.049394086 0.53100008 11150894
0.040597796 -0.049394086 0.53100002 11019823
0.0414166 -0.049394086 0.53100002 10954287
0.042440113 -0.049394086 0.53100008 10954287
0.043463625 -0.049394086 0.53100002 11085359
0.04448713 -0.049394086 0.53100008 11151149
0.035480246 -0.048579767 0.53100008 10362917
0.036503755 -0.048579767 0.53100002 10625833
0.037527267 -0.048579767 0.53100008 11151920
0.038550775 -0.048579767 0.53100002 11151410
0.039574284 -0.048579767 0.53100008 11085616
0.040597796 -0.048579767 0.53100002 11019823
0.0414166 -0.048579767 0.53100002 10954031
0.042440113 -0.048579767 0.53100008 10954031
0.043463625 -0.048579767 0.53100002 11150638
0.044487134 -0.048579767 0.53100008 11216426
0.031590909 -0.047561869 0.53100008 10428710
0.03240972 -0.047561869 0.53100008 10362918
0.046943557 -0.047561869 0.53100002 11413030
0.047557663 -0.047561869 0.53100008 11282471
0.048376467 -0.047561869 0.53100008 11217191
0.031590909 -0.046543971 0.53100002 10428711
0.03240972 -0.046543971 0.53100002 10362918
0.046943553 -0.046543971 0.53100002 11479077
0.047557659 -0.046543971 0.53100002 11348263
0.048376463 -0.046543971 0.53100002 11282984
0.029748594 -0.045526072 0.53100002 10363432
0.0305674 -0.045526072 0.53100008 10363178
0.050628185 -0.045526072 0.53100002 11020331
0.051446989 -0.045526072 0.53100008 10954541
0.028520383 -0.044304594 0.53100002 10429218
0.029543892 -0.044508174 0.53100002 10363177
0.0305674 -0.044711754 0.53100002 10362924
0.050628185 -0.044711754 0.53100002 10954541
0.051446993 -0.044711754 0.53100002 10888493
0.028520383 -0.043490276 0.53100008 10428967
0.029339189 -0.043490276 0.53100002 10428972
0.028520381 -0.042472377 0.53100008 10494250
0.029339191 -0.042472377 0.53100002 10494253
0.028520383 -0.041658059 0.53100008 10494249
0.029339191 -0.041658059 0.53100002 10494250
0.11265285 -0.04104732 0.53100002 1451096
0.11347166 -0.04104732 0.53100002 991067
0.12165974 -0.04104732 0.53100002 203387
0.12247854 -0.04104732 0.53100002 400510
0.11265285 -0.040436581 0.53100002 1319511
0.11347166 -0.040436581 0.53100002 925278
0.12165974 -0.040436581 0.53100002 137595
0.12247855 -0.040436581 0.53100002 137594
0.026678067 -0.039215103 0.53100002 11216178
0.027496872 -0.039215103 0.53100002 11216433
0.11265285 -0.039825842 0.53100002 1187928
0.11347166 -0.039825842 0.53100002 859489
0.12165974 -0.039825842 0.53100002 466561
0.12247854 -0.039825842 0.53100002 269693
0.026678067 -0.038400784 0.53100002 11216687
0.027496874 -0.038400784 0.53100002 11151154
0.026678067 -0.037586462 0.53100002 11151399
0.027496874 -0.037586462 0.53100002 11085613
0.050628185 -0.037382882 0.53100002 10626866
0.051446993 -0.037382882 0.53100002 10757936
0.13148543 -0.037586462 0.53100002 137594
0.13250895 -0.037586462 0.53100008 137596
0.026678065 -0.036568563 0.53100008 10954537
0.027496872 -0.036568563 0.53100008 10888749
0.050628185 -0.036568563 0.53100002 10365235
0.051446993 -0.036568563 0.53100008 10692657
0.13148543 -0.036772143 0.53100002 269179
0.13250893 -0.036772143 0.53100008 269179
0.13660298 -0.036161404 0.53100002 137842
0.13742179 -0.036161404 0.53100002 203640
0.028520383 -0.035550665 0.53100008 10691882
0.029339191 -0.035550665 0.53100002 10757418
0.048785873 -0.035550665 0.53100002 10824230
0.049604677 -0.035550665 0.53100002 10758442
0.050218783 -0.035550665 0.53100002 10692910
0.13660298 -0.035550665 0.53100002 335482
0.13742179 -0.035550665 0.53100008 203641
0.028520383 -0.034532767 0.53100008 10691628
0.029339189 -0.034532767 0.53100002 10757421
0.048785869 -0.034532767 0.53100008 10824230
0.04960468 -0.034532767 0.53100008 10823978
0.05021878 -0.034532767 0.53100002 10824239
0.13660298 -0.034939926 0.53100002 269951
0.13742179 -0.034939926 0.53100002 204156
0.13987821 -0.034125607 0.53100002 334974
0.14049232 -0.034125607 0.53100002 334974
0.14110643 -0.034125607 0.53100002 400767
0.029748594 -0.033514868 0.53100002 10757429
0.0305674 -0.033514868 0.53100008 10757683
0.046943553 -0.033514868 0.53100002 11020330
0.047557659 -0.033514868 0.53100002 10955055
0.048376463 -0.033514868 0.53100002 10890023
0.13987821 -0.033514868 0.53100002 334974
0.14049232 -0.033514868 0.53100002 400767
0.14110643 -0.033514868 0.53100002 400767
0.029748594 -0.03270055 0.53100002 10888499
0.0305674 -0.03270055 0.53100008 10757679
0.03363793 -0.032089811 0.53100002 10560808
0.034456737 -0.032089811 0.53100002 10560810
0.035480246 -0.032089811 0.53100002 10560810
0.036299054 -0.032089811 0.53100002 10560810
0.045510642 -0.032089811 0.53100002 11151151
0.046636499 -0.03239518 0.53100002 10954542
0.047557659 -0.03270055 0.53100002 10955055
0.048376467 -0.03270055 0.53100002 10890023
0.10262246 -0.03229339 0.53100002 8423560
0.10344127 -0.03229339 0.53100008 7964036
0.10426008 -0.032089811 0.53100002 6583159
0.13987821 -0.032904129 0.53100002 400767
0.14049232 -0.032904129 0.53100002 466560
0.14110643 -0.032904129 0.53100002 466560
0.03363793 -0.031479072 0.53100002 10560808
0.034456737 -0.031479072 0.53100002 10560810
0.035480246 -0.031479072 0.53100008 10626603
0.036299054 -0.031479072 0.53100002 10692396
0.045510642 -0.031479072 0.53100002 11151152
0.046329446 -0.031479072 0.53100002 10954547
0.10262246 -0.031479072 0.53100002 8292489
0.10344127 -0.031479072 0.53100008 7766921
0.10426008 -0.031479072 0.53100002 5925492
0.03363793 -0.030868333 0.53100002 10560808
0.034456737 -0.030868333 0.53100002 10560810
0.03548025 -0.030868331 0.53100002 10626603
