# .PCD v0.7 - Point Cloud Data file format
VERSION 0.7
FIELDS x y z rgb
SIZE 4 4 4 4
TYPE F F F U
COUNT 1 1 1 1
WIDTH 989
HEIGHT 1
VIEWPOINT 0 0 0 1 0 0 0
POINTS 989
DATA ascii
0.069490843 -0.041435059 0.47900003 16333345
0.072530851 -0.041895527 0.47844642 16267809
0.077421747 -0.041882072 0.4778074 16333347
0.082388386 -0.041878745 0.47816703 16333603
0.087526157 -0.041223235 0.47866684 14909822
0.091889173 -0.040977526 0.47878265 16334121
0.09663523 -0.040516846 0.47900003 16005667
0.069490843 -0.035558466 0.47900006 16398882
0.072612979 -0.037450824 0.47826385 16398881
0.077441305 -0.037493773 0.4779228 16464677
0.082428947 -0.037500113 0.47799948 16073519
0.087424912 -0.03750835 0.47811148 15431279
0.092526875 -0.037559118 0.47875741 16399396
0.097363405 -0.037390765 0.47899911 14823455
0.10069765 -0.036293037 0.47900003 12526110
0.06949082 -0.032436527 0.47900006 16399136
0.072313279 -0.032500438 0.47844598 16464673
0.077453643 -0.03255206 0.47799948 16530466
0.082428947 -0.032552101 0.47799966 15883598
0.087582596 -0.032459859 0.47879693 15753558
0.092572808 -0.032436464 0.47899905 16464673
0.09750849 -0.032474767 0.4789989 15217182
0.10069768 -0.03317111 0.47900006 13839137
0.069009103 -0.026839396 0.47900006 16465188
0.072401494 -0.027552379 0.47840971 16465187
0.077379815 -0.027660286 0.47816953 16530724
0.082377493 -0.027576469 0.47833601 15559263
0.087486543 -0.027498862 0.47862619 16206646
0.09256722 -0.027476551 0.47896969 16465188
0.097200066 -0.027650995 0.47899956 16399400
0.068752214 -0.02251978 0.47900003 16465445
0.07244537 -0.022519773 0.47899884 16465445
0.07740844 -0.022513589 0.47886175 16334628
0.08237385 -0.022507699 0.47875404 15237498
0.087509125 -0.022498434 0.47857046 16334887
0.092568673 -0.022518663 0.47897708 16530727
0.096446648 -0.023082426 0.47900006 16530725
0.068123095 -0.017220141 0.47900006 16399910
0.072445363 -0.017561402 0.47899905 16465446
0.077431068 -0.017561413 0.47899926 16334374
0.082416736 -0.017561413 0.47899905 16337718
0.087587118 -0.017561402 0.47899905 16465703
0.092352681 -0.017714646 0.47899961 16530468
0.095157988 -0.01866327 0.47900006 16727333
0.064689793 -0.010215673 0.47900003 16202534
0.067798197 -0.01257243 0.4789995 13967638
0.07244537 -0.012603036 0.47899884 13639701
0.077431068 -0.012603035 0.47899905 14297629
0.082416736 -0.01260303 0.47899884 15939107
0.087587111 -0.01260304 0.47899884 16333863
0.091719881 -0.013477528 0.47900003 16399397
0.063901909 -0.0065795314 0.47900006 16202537
0.067459665 -0.0074610119 0.47899905 16071465
0.07244537 -0.0074610128 0.47899884 15939874
0.077431068 -0.0074610119 0.47899905 14691356
0.082287684 -0.0075005074 0.47899899 13115667
0.085555904 -0.0092974547 0.47900006 12523284
0.062739253 -0.0023072222 0.47888559 16137254
0.067454062 -0.002469802 0.47863889 16137510
0.072460368 -0.0025331918 0.47883159 15811118
0.07743106 -0.0025026454 0.47899926 15940394
0.082277179 -0.0024706146 0.4789992 16005670
0.085555904 -0.000666212 0.47900003 15546667
0.062416758 0.0024535283 0.47857052 16138022
0.06750308 0.0024505998 0.47799927 16203561
0.072480932 0.0024506014 0.47801593 15106169
0.077398881 0.0024545549 0.47879586 15746869
0.082379423 0.0024243267 0.4789989 16005673
0.085555874 0.0019047965 0.47900006 15217706
0.059150111 0.0074140998 0.47900003 15875115
0.062453557 0.0075958413 0.47884586 16137770
0.067494012 0.0075459373 0.47838145 15877940
0.072476 0.0076342253 0.47843775 15037808
0.077426746 0.0075974027 0.4789716 15940648
0.082026914 0.0073936977 0.47899938 15874343
0.062473983 0.012556093 0.47899905 16203307
0.067459658 0.0125561 0.47899926 15813179
0.072445363 0.01255609 0.47899905 15362658
0.077390783 0.012502672 0.47899932 16005928
0.081031807 0.012097009 0.47900003 15809064
0.062473912 0.015494409 0.47900003 16203051
0.067805342 0.015713217 0.47900006 15297113
0.07244534 0.016228996 0.47900006 15488587
0.07669241 0.016228978 0.47900006 15875115
0.0093900673 -0.050032236 0.48400003 14556693
0.011069316 -0.050032236 0.48400003 14490903
-0.011907881 -0.047037818 0.48345956 14360087
-0.0075691342 -0.047493316 0.48270407 14360086
-0.0025437318 -0.047480743 0.48257232 14425365
0.0024791474 -0.047480702 0.48257223 14425365
0.0074659251 -0.047444072 0.48270884 14425363
0.011697992 -0.047176499 0.48352417 14491156
0.069225416 -0.045355707 0.48359999 16333605
0.072005562 -0.045225509 0.48094121 16464676
0.077501118 -0.045255911 0.48057142 16464420
0.082688496 -0.045234062 0.48221737 16333345
0.08623299 -0.045377597 0.4838334 15811884
-0.011988211 -0.042643197 0.48335621 14295322
-0.0075635416 -0.042460818 0.48230806 14426394
-0.0025407199 -0.042433742 0.48200011 14295066
0.0024762123 -0.042433757 0.48199996 14360600
0.0074931444 -0.042433735 0.48200011 14360344
0.011632266 -0.042501926 0.48217723 14491414
0.068552963 -0.042154577 0.4821701 16333346
0.072003283 -0.043967921 0.48062745 16399140
0.077501118 -0.044518929 0.48057139 16398884
0.082845293 -0.044317354 0.48182756 16268324
0.087354764 -0.043462377 0.48084363 15238271
0.092919305 -0.042647876 0.4810001 16203043
0.097081222 -0.042099647 0.48224604 15743010
0.10128305 -0.040641949 0.48266661 12460055
-0.011473854 -0.037489515 0.48374113 14491674
-0.0075682825 -0.037491553 0.48261598 14426137
-0.0025407202 -0.037444286 0.48200026 14425882
0.0024762123 -0.037444279 0.48200011 14425625
0.007493143 -0.03744426 0.48200026 14491416
0.0117003 -0.037392933 0.48229992 14557208
0.068003915 -0.037379161 0.48163897 16398881
0.070376083 -0.038025059 0.47999993 16398882
0.099263847 -0.039579555 0.48100004 14101788
0.10230296 -0.037529446 0.48282591 13905696
-0.011175554 -0.033001915 0.48399985 14426137
-0.0075768894 -0.032534171 0.48318431 14426136
-0.002543201 -0.032473736 0.48228601 14425879
0.0024762121 -0.032454886 0.48199996 14360087
0.007497991 -0.032472007 0.48226431 14491161
0.011787396 -0.032510199 0.48282948 14556951
0.06728901 -0.032486893 0.48150015 16530725
0.10258082 -0.032632038 0.48295066 15611427
-0.01129402 -0.028242137 0.48399979 14360858
-0.0075733312 -0.028448328 0.48300064 14360857
-0.0025452757 -0.02843154 0.48272267 14426648
0.0026528041 -0.02819893 0.48258901 14360860
0.007512874 -0.027720891 0.4832536 14491930
0.01144013 -0.028097412 0.48350003 14557466
0.064405516 -0.026826704 0.48380005 16464935
0.06680198 -0.027682174 0.48110056 16530727
0.099242516 -0.025879281 0.48000002 16465447
0.10104291 -0.027268706 0.48109686 16399654
0.063998461 -0.022130439 0.48218581 16399654
0.066362642 -0.02255719 0.48045918 16530983
0.098538302 -0.022087242 0.48039991 16596262
0.10117482 -0.022965398 0.48250005 16465191
0.063528173 -0.017422726 0.48224995 15677217
0.066030815 -0.01803731 0.48024988 16333862
0.094616488 -0.01612586 0.4799999 16399139
0.097401403 -0.017692132 0.48191488 16465190
0.10042138 -0.019559832 0.48300001 16530729
0.062598065 -0.012498752 0.48150021 14362394
0.065379955 -0.012629346 0.47999975 13901587
0.093201049 -0.011741813 0.48053318 16399653
0.095931344 -0.012876902 0.4821133 16334118
0.059228253 -0.0064764805 0.48336837 16071464
0.061933517 -0.0078032897 0.48084918 16071721
0.084994338 -0.006740489 0.48000002 13246229
0.087717749 -0.0073468145 0.48001215 13181210
0.092313506 -0.0075403475 0.48085311 13514537
0.09558446 -0.0075581241 0.48337194 13648692
0.058755208 -0.0024797793 0.48203924 16202535
0.060701944 -0.0038541353 0.48015368 16202792
0.084994338 -0.0030599518 0.48000002 16136483
0.087719336 -0.0026122364 0.48016271 15545893
0.092261143 -0.0025140496 0.48122358 15480101
0.058040228 0.0025279494 0.48178083 16006695
0.084994346 0.0044851494 0.48000002 15217710
0.088059492 0.0025850395 0.48034894 12591903
0.092125237 0.0021838162 0.4820157 13904926
0.054744422 0.0083781658 0.48380002 16071722
0.057353489 0.0075641363 0.48159286 15940649
0.084483877 0.0083433678 0.47999981 14560807
0.087618575 0.0073966957 0.48078284 13314593
0.091501147 0.0072358488 0.48244587 15415076
0.054312415 0.013166198 0.48323074 15875623
0.057513542 0.012417631 0.48077625 16006441
0.079258062 0.014790652 0.48000002 15940392
0.083390683 0.012722543 0.4799996 15546405
0.087511204 0.012474944 0.48134866 14758437
0.091055617 0.012309296 0.48369217 15743781
0.053522389 0.017788785 0.48240739 15875368
0.057461057 0.017562425 0.48032731 15940905
0.062419303 0.018103121 0.47999984 16137771
0.067293733 0.018173706 0.4799999 15428453
0.07241153 0.018839233 0.47999963 15616313
0.077818863 0.01826671 0.4799996 15940650
0.082403772 0.017551048 0.48000059 16137000
0.087429568 0.017449643 0.48183253 16006184
0.090180628 0.018810678 0.484 15876134
0.049775582 0.022845706 0.48300001 15745070
0.052598745 0.022603646 0.48187685 15875884
0.057445567 0.022528986 0.48019293 15875626
0.062438063 0.022526978 0.48014241 16006698
0.067447826 0.022531476 0.4802314 15300724
0.072438121 0.022528773 0.48017797 15876914
0.077407673 0.022519764 0.48000059 16006441
0.082478136 0.022540418 0.48042631 16072231
0.08703725 0.022164652 0.48282319 16072743
0.090180628 0.02029516 0.48400003 15876136
0.052890275 0.026732398 0.48227099 15482155
0.05752258 0.027341759 0.48128688 15678249
0.062537342 0.027421365 0.48136449 15941164
0.067528769 0.027354093 0.48159793 15941165
0.072513424 0.027430274 0.48145798 15940907
0.07752829 0.027347926 0.48074791 16006185
0.082559772 0.027347583 0.48154056 16006440
0.085522257 0.027371792 0.48333332 16138026
0.068520881 0.030679494 0.48388895 15743533
0.072558776 0.03057332 0.48221445 16005930
0.077544369 0.030559739 0.4820002 15875113
0.081955694 0.030610463 0.48280007 16072233
-0.015584863 -0.050361618 0.48900005 14556694
-0.012012003 -0.051025022 0.48680958 14556693
-0.0072063021 -0.051970791 0.4872258 14490901
-0.0024639689 -0.052139554 0.48661166 14490901
0.0024647303 -0.052155361 0.48671311 14556183
0.0069897785 -0.051811397 0.48710003 14425621
0.012215397 -0.051120277 0.48784631 14491157
-0.015513763 -0.047335085 0.48676932 14491416
-0.013597745 -0.048524823 0.48558834 14490902
0.014037437 -0.047739793 0.48662502 14491417
0.015875753 -0.047114078 0.48836374 12140352
0.068751365 -0.046189401 0.48750007 16201760
0.072738037 -0.047003012 0.48641187 16398883
0.076978907 -0.047217906 0.48647365 16464421
0.082545385 -0.046831802 0.48738492 16333347
0.087352835 -0.046497095 0.48743492 16268070
0.0927606 -0.045447778 0.48645723 16202274
0.096513867 -0.045643546 0.48866665 16202275
-0.01550641 -0.042458985 0.48653847 14360859
-0.013990266 -0.041825213 0.48535722 14360858
0.014136515 -0.042348176 0.48600003 14295579
0.015863929 -0.042587783 0.48800027 11553355
0.06702432 -0.042453583 0.48646158 16004895
0.088871196 -0.04474324 0.4850001 14445417
0.092515111 -0.044706032 0.48630768 16072746
0.098188266 -0.043761082 0.48657146 15939875
0.10198539 -0.042482678 0.48718768 12525336
-0.015557543 -0.037545465 0.48814306 14295576
-0.014012113 -0.037553921 0.48633343 14426393
0.014217905 -0.037699483 0.48600003 14098718
0.015873218 -0.037557125 0.48828596 11360604
0.064741604 -0.036345191 0.48814288 15544093
0.066006526 -0.03772093 0.48665532 16136227
0.10380756 -0.039039232 0.48634782 13708581
0.10619313 -0.035925869 0.48900008 16203045
-0.01558486 -0.032551263 0.48900017 14295576
-0.013415315 -0.032216199 0.48629528 14360857
0.0143274 -0.032599706 0.48692852 13574427
0.064447388 -0.032022554 0.48648399 16070946
0.065294787 -0.032455429 0.48620009 16399656
0.10345478 -0.03079745 0.48499995 16202787
0.1061931 -0.033301175 0.4890002 16006437
-0.015584863 -0.029364159 0.48899999 14295835
-0.012736036 -0.027742844 0.48639995 13902875
-0.007631206 -0.026235959 0.48661545 13903385
-0.002558572 -0.026160406 0.48521447 14165271
0.0023745035 -0.025919382 0.48614833 13772059
0.0073982943 -0.025188033 0.48799995 13117984
0.013106653 -0.027341442 0.486671 13772061
0.063740358 -0.027853364 0.48722973 16267810
0.065313131 -0.029309904 0.48500001 16530989
0.10385987 -0.027492458 0.48650798 16137510
0.0036393832 -0.024468284 0.48857141 11625320
0.0073982943 -0.024439659 0.48799995 11490644
0.010972675 -0.024439663 0.48799995 11224385
0.062494259 -0.022610925 0.48650017 16136998
0.103034 -0.022237565 0.48688245 16137510
0.10506205 -0.023364879 0.48900002 15547431
0.061495945 -0.017144598 0.48666674 14493723
0.099092156 -0.016045911 0.48500007 16268837
0.10126442 -0.017472815 0.48684624 16203301
0.059445508 -0.01160014 0.48791674 15611426
0.060456142 -0.012616385 0.48653859 15019293
0.098347239 -0.012347963 0.48638466 16334375
0.10064638 -0.013775948 0.48800001 16203300
0.058694378 -0.0076422608 0.48666674 16006181
0.060264975 -0.0094139166 0.48500007 16137256
0.09793184 -0.0074452865 0.48781276 13713202
0.056849748 -0.002117462 0.48690334 15940646
0.096161515 -0.0024061184 0.48632199 15283748
0.054553747 0.0041243713 0.48800007 15744037
0.055781066 0.0021343133 0.48653838 15875368
0.094295837 0.0037022051 0.48536 15678244
0.096475735 0.0014581373 0.48797387 15547432
0.054084711 0.0075733685 0.48693335 16006186
0.05559076 0.0058334763 0.4850001 16006951
0.093784519 0.0076780096 0.48630762 15809575
0.095396645 0.0072167418 0.48766667 15481384
0.053078812 0.012277178 0.48695651 15875368
0.093316242 0.012708805 0.48781985 15743782
0.049538352 0.019527419 0.48799998 15417652
0.051513925 0.017179001 0.48689154 15678764
0.091649346 0.017618742 0.48684642 15679014
0.049405608 0.02245963 0.48669234 15679794
0.050619937 0.021206319 0.4858261 15810863
0.089167923 0.023257673 0.48653847 16072744
0.090864033 0.022503458 0.48783335 15744814
0.049436845 0.026022278 0.48700005 15743796
0.052291375 0.028531313 0.48640752 12994110
0.087463059 0.027110895 0.48657155 16138284
0.090735227 0.025379233 0.48900005 15613492
0.057625271 0.030940145 0.48800009 11364457
0.062478893 0.030827971 0.48623082 14103590
0.067595921 0.031875931 0.48700011 14431530
0.072398752 0.032499846 0.48614296 15480615
0.077466108 0.032423452 0.48500028 15809578
0.082665108 0.032399889 0.48621875 15875372
0.086006805 0.030702334 0.48720008 16203565
-0.010602382 -0.055611428 0.49399999 14621974
-0.007355677 -0.055533495 0.49330774 14621718
-0.0024058016 -0.055420902 0.49230772 14556692
0.0025327229 -0.05549885 0.49300003 14556437
0.0071002035 -0.055539779 0.49336371 14491158
-0.016394818 -0.051297411 0.49350008 14556951
-0.012596938 -0.052989557 0.49172232 14556694
-0.0082026524 -0.054010589 0.49202436 14556181
-0.0024058016 -0.054665931 0.49230772 14491156
0.0028114666 -0.054692406 0.49300003 14556437
0.0079648057 -0.053830586 0.49178252 14491156
0.012505218 -0.053011242 0.49221426 14425621
0.015853774 -0.050941233 0.49199995 12662840
-0.017002828 -0.047451779 0.49184594 14426137
0.01760586 -0.047522444 0.49260014 9795452
0.068911143 -0.047275286 0.49200007 16070435
0.072083525 -0.048751265 0.49166659 16333091
0.078696527 -0.048619058 0.49033329 16398886
0.082407422 -0.04880083 0.49216664 16398883
0.087334365 -0.04826485 0.49227268 16333347
0.092542239 -0.04723525 0.49158335 16333092
0.097274184 -0.046605971 0.49199998 16267812
0.10079002 -0.045859285 0.49300003 15939874
-0.016992189 -0.042518441 0.49153832 14295833
0.01770097 -0.042559613 0.49200022 9468544
0.066338435 -0.042626642 0.49149996 14821914
0.10478114 -0.042457096 0.49300003 11803414
0.10658512 -0.041660853 0.49352789 13642010
-0.017030375 -0.037514377 0.49264291 14360857
0.017735541 -0.037550583 0.49265224 9600129
0.064456835 -0.036862619 0.49274999 14034460
0.065557331 -0.038954146 0.49175009 15281186
0.1074466 -0.037589882 0.49181232 15874597
-0.017042723 -0.032439515 0.49300003 14230041
0.01648223 -0.032802265 0.49138385 10644849
0.063905142 -0.032403667 0.49119985 15216152
0.10787918 -0.03226772 0.49233311 15416359
-0.016417272 -0.028026737 0.49261537 14034206
-0.013303051 -0.026077965 0.49130428 12402488
-0.0075052651 -0.025324453 0.49064294 11353912
-0.0023939929 -0.025291272 0.48999983 11939632
0.0011950365 -0.02529127 0.48999992 12396841
0.013994441 -0.025923396 0.4905999 13053473
0.016154354 -0.027738888 0.49306792 10909564
0.062644415 -0.027376847 0.49175996 15150365
0.10679449 -0.027453985 0.49176908 15023147
-0.012273658 -0.024649097 0.49218178 11704221
-0.0075052641 -0.024572019 0.49064288 11700878
-0.0023939935 -0.024539828 0.48999983 11761279
0.0031041552 -0.023724655 0.49261907 11505045
0.007474096 -0.023366997 0.49300003 11377057
0.01185686 -0.023760654 0.49245453 11304064
0.01526626 -0.024690071 0.49300003 11895423
0.061317936 -0.022589602 0.49253845 14888220
0.10458463 -0.021560511 0.49133337 15940390
0.10608489 -0.02238369 0.49235305 14368819
0.059508584 -0.016406614 0.49321744 10556177
0.060780291 -0.017970286 0.49142852 14362653
0.10390822 -0.017112814 0.49252531 15612967
0.1057314 -0.019775786 0.49300003 14173753
0.058802385 -0.012225851 0.49219504 14954526
0.060116537 -0.01349593 0.49142858 14757150
0.099798903 -0.010825992 0.48999995 16530982
0.10195468 -0.012628446 0.49180746 16006693
0.057515897 -0.0073005566 0.49218735 15546148
0.098476626 -0.005190169 0.49000001 10777973
0.10089914 -0.0075536347 0.4930943 13582389
0.054753192 -0.0012337659 0.49355561 14427680
0.056040835 -0.0027199083 0.49204162 15414566
0.098814204 -0.0027004106 0.49122405 13517372
0.054154966 0.0027729953 0.49177778 15086372
0.05518771 0.0017632553 0.49140006 15678251
0.097955249 0.0027249409 0.49167785 14499888
0.10004227 0.0017750515 0.49400002 12673369
0.05283545 0.0079560867 0.49169478 15348519
0.094698697 0.0092751086 0.49000001 15677993
0.09704423 0.0074911206 0.49196419 13977399
0.051698651 0.012649318 0.49232557 15415077
0.095945284 0.011741954 0.49243182 14434608
0.04959026 0.017825725 0.49100003 14758440
0.050425228 0.016877754 0.49248281 15087398
0.094190076 0.017114496 0.49157122 14434871
0.095278487 0.018782441 0.49300003 12151913
0.048571829 0.023061102 0.49154556 15285292
0.092788264 0.022702098 0.49188885 14240831
0.048900083 0.026759477 0.49200001 14433333
0.051051088 0.028886169 0.49060002 11884375
0.089283526 0.02857776 0.49071988 16073005
0.091311604 0.027550332 0.49243182 14764345
0.053742643 0.031298283 0.49276486 10984606
0.058264028 0.032752667 0.4931429 10919329
0.062640198 0.032886632 0.49192858 11107970
0.067134663 0.033212826 0.49102113 12080721
0.072469629 0.034380455 0.49171424 12927030
0.077509128 0.034260601 0.48999983 15283751
0.082340091 0.034305088 0.49063635 15744044
0.08696162 0.032381691 0.4914037 16006957
0.090153873 0.030250622 0.49200001 15417899
0.069381699 0.035297841 0.49400002 10852763
0.072469614 0.03513452 0.49171433 10513770
0.077509142 0.035012033 0.48999992 13644583
0.082340091 0.0350575 0.49063638 15547692
0.085395746 0.03522639 0.49300003 16006956
0.23916727 0.14869933 0.49400017 197376
0.24271254 0.14781757 0.49399984 394497
0.24646145 0.14826037 0.49386999 328960
0.23397081 0.15425245 0.49394137 0
0.23767906 0.15264606 0.49370629 65792
0.24244308 0.152446 0.49318537 263168
0.24747926 0.15247516 0.49296409 131841
0.25043774 0.15142426 0.49360004 197632
0.22934985 0.15878293 0.49400017 0
0.23277013 0.15777916 0.49355924 0
0.23753206 0.15751418 0.49255577 131584
0.24244417 0.15735325 0.49148971 328705
0.24728252 0.15740214 0.49112517 263168
0.22938456 0.16269581 0.49392849 0
0.23253596 0.16263649 0.49316493 0
0.23754738 0.16246347 0.49158666 197376
0.24235809 0.16232793 0.49023354 328960
0.24694896 0.16238183 0.49000049 263425
0.22940385 0.16682634 0.49388888 0
0.23262842 0.16748582 0.49321374 0
0.23741665 0.16751274 0.49168375 131328
0.24247569 0.16739459 0.49052224 197632
0.24696107 0.16746017 0.49003929 197634
0.2336292 0.1715214 0.49392739 0
0.2377021 0.17227066 0.4929038 0
0.24266914 0.17255348 0.49208945 65792
0.24729641 0.17264786 0.49121383 66305
0.23900214 0.17670602 0.49384612 0
0.24245331 0.17730474 0.49324989 0
0.24735565 0.17745754 0.49218243 0
0.24477537 0.18075268 0.49400005 66048
0.247254 0.1804221 0.49297687 0
-0.012235231 -0.056287229 0.49845457 14556951
-0.0074200192 -0.057353895 0.49761528 14621974
-0.0024272921 -0.057225317 0.49650002 14556692
0.0025540232 -0.057291847 0.49707678 14556180
0.0077660494 -0.057246648 0.49787915 14425622
0.011726399 -0.056118421 0.49713346 14491158
-0.012199529 -0.054805875 0.49700001 14557208
0.009603478 -0.054775111 0.49500003 14556694
0.012803018 -0.054391585 0.49590918 14491159
0.017220739 -0.052479725 0.49702618 10772066
0.073124178 -0.050850913 0.49745461 16333347
0.076788627 -0.050610222 0.49510011 16333348
0.01941061 -0.047560062 0.49692312 9338498
0.020342432 -0.047891989 0.49713638 9339011
0.069471397 -0.049180929 0.49599996 15807774
0.070236228 -0.049180932 0.49600002 16398370
0.088986166 -0.049081787 0.49499997 16464161
0.092270292 -0.049169917 0.49588904 16267297
0.097618937 -0.048157088 0.49588886 16202275
0.1004473 -0.047659639 0.49599996 16267813
-0.018679867 -0.04298979 0.4961001 14230551
0.01941061 -0.042604081 0.49692297 9272706
0.020370027 -0.042607553 0.49696153 9272962
0.064746253 -0.041749086 0.49760002 10636610
0.065764144 -0.042730454 0.49697298 12725798
0.10679751 -0.043804009 0.49699998 12066071
0.11022955 -0.040324498 0.49700001 15875623
-0.018691702 -0.037422009 0.49714273 14361115
0.019463839 -0.036225446 0.4982858 9338241
0.020424288 -0.036225442 0.4982858 9272448
0.064050511 -0.037169635 0.49835709 11941942
0.065264791 -0.039482716 0.49600002 13706527
0.10930339 -0.038610227 0.49571991 16137253
0.11022955 -0.039562318 0.49700001 16006187
-0.018629568 -0.032271016 0.49754533 14361115
0.018301364 -0.032328002 0.49588904 9469315
0.020453567 -0.034364808 0.49900004 9403520
0.063224971 -0.031622227 0.495 13640734
0.10921814 -0.03110251 0.4951579 13911353
0.11000776 -0.030354984 0.49600002 11298145
-0.017382296 -0.027428249 0.49807695 13318453
-0.01469026 -0.025462026 0.49700001 11695225
0.017867645 -0.027536616 0.49749193 10917533
0.061842509 -0.027225031 0.4966667 12790048
0.10940263 -0.028309982 0.49696559 12474187
0.11035965 -0.027603263 0.49750009 9993082
-0.015456639 -0.02469985 0.49700001 11115171
-0.012234334 -0.023559792 0.49667212 10985125
-0.0073798373 -0.023461798 0.49500039 11050659
-0.0024184219 -0.023461794 0.49500039 11246755
0.0024186352 -0.022832561 0.4964917 11312291
0.0075498978 -0.021885632 0.49799979 11115683
0.012637557 -0.022783849 0.49680939 11706791
0.015740691 -0.023917081 0.49771443 12037041
0.06074091 -0.022687808 0.49736845 12594211
0.10808453 -0.022189785 0.4967455 11953756
0.059125587 -0.017219052 0.49744448 10035229
0.060362611 -0.019096902 0.49500006 13705755
0.10677149 -0.018322449 0.49717489 12737354
0.058027189 -0.01248687 0.49638474 13379101
0.10361683 -0.012066252 0.49586111 15154728
0.10551716 -0.013124359 0.49795645 12670793
0.056235671 -0.0069767633 0.49700004 13576738
0.10330846 -0.0081768846 0.49763629 13060156
0.054237392 -0.0012672908 0.49833331 12266541
0.05562504 -0.0045021363 0.49700007 13837342
0.10166281 -0.0030116988 0.49633348 10255486
0.053597126 0.0023080837 0.49641669 13379875
0.099558115 0.003686836 0.49633333 13128519
0.10127151 0.0022212751 0.49749997 10517372
0.052126113 0.0071972804 0.49736354 13183269
0.098875992 0.0081654061 0.49637929 11234403
0.10075509 0.0070325383 0.49833325 9930114
0.051004618 0.012126516 0.49724984 13445667
0.097869918 0.012359992 0.49602443 11496805
0.049236275 0.017955434 0.49633333 13642277
0.09452007 0.019807525 0.49500003 14173756
0.096665412 0.01629342 0.49588886 11432297
0.047865763 0.024700768 0.49800006 14102053
0.094329283 0.022045927 0.49539995 12738394
0.095590696 0.021721346 0.4962 11174531
0.048630018 0.027226487 0.49685723 12730171
0.050630596 0.029486189 0.49500003 11172993
0.093615487 0.027516332 0.49707133 12812153
0.051935013 0.031287737 0.49626657 11050401
0.056399763 0.033292621 0.49637151 10919840
0.062444355 0.034623668 0.49792305 10853793
0.066967361 0.034561489 0.49576917 11048599
0.088696294 0.033156797 0.49525017 15810608
0.091384493 0.031952187 0.49704441 14372679
0.062444355 0.035387263 0.49792308 10919329
0.066510364 0.035300657 0.49611107 10787998
0.073177785 0.036524963 0.49781811 11179415
0.077441819 0.03636333 0.4956156 11426908
0.082473651 0.036391553 0.49600017 14038311
0.086656235 0.036109064 0.49733347 15678250
0.23901923 0.13895279 0.49847904 0
0.24232793 0.13833158 0.49742207 328704
0.24714503 0.13845435 0.49745834 393984
0.23394869 0.14361282 0.49849996 0
0.23749451 0.14261574 0.49715042 0
0.24232714 0.14237659 0.49546438 460547
0.2472295 0.14246362 0.49564815 394498
0.2509878 0.14224544 0.49805772 394498
0.22963227 0.14878845 0.49875006 0
0.232648 0.14764851 0.49754786 0
0.23721239 0.14740871 0.49549523 65536
0.24196728 0.14574207 0.49503952 460545
0.24829219 0.14682527 0.49503115 328961
0.25125515 0.14794113 0.49592468 329216
0.2287771 0.15286914 0.49804217 0
0.23221977 0.15234891 0.49593046 0
0.23592378 0.15109709 0.49511108 0
0.22755302 0.15746698 0.496757 0
0.23087236 0.1561714 0.49499997 0
0.22467963 0.16255069 0.49800012 131328
0.22678861 0.16236432 0.49607432 0
0.22423556 0.16772722 0.49863163 395011
0.22690977 0.16741247 0.49614564 0
0.23038661 0.16954212 0.49500003 0
0.22417344 0.17198294 0.498849 723718
0.22748691 0.17250477 0.4973869 0
0.23171525 0.17297502 0.49587378 0
0.2360673 0.17452063 0.49527276 0
0.22852977 0.17735489 0.49884647 0
0.23255914 0.17761168 0.49742147 0
0.23694511 0.17785989 0.49560276 0
0.22932434 0.18120472 0.49899989 0
0.23245627 0.18174498 0.49834242 0
0.23704091 0.18140194 0.49670267 0
0.24228229 0.18097758 0.4951337 0
-0.010622713 -0.060215268 0.50400001 14688531
-0.0090542799 -0.060119689 0.50319999 14688532
0.009176963 -0.060095794 0.50300002 14688531
0.011713022 -0.060170464 0.50362498 14688533
-0.01561214 -0.055934627 0.50199997 14557208
-0.011919739 -0.058363058 0.50338471 14556947
-0.0073264902 -0.059382673 0.50238317 14556693
-0.002045495 -0.059140574 0.50108695 14556694
0.0031566746 -0.059327949 0.50139987 14753557
0.0074516637 -0.059375159 0.5023194 14556950
0.012720676 -0.057945292 0.50201368 14491158
0.016171966 -0.056537259 0.50236368 12728375
-0.018085873 -0.053081401 0.50288475 14360857
-0.01483805 -0.054972321 0.50200003 14688280
0.019041017 -0.053138133 0.50143605 9601929
0.021241879 -0.051596209 0.50244445 10128785
0.072020724 -0.052287944 0.503111 16135968
0.078933366 -0.05273252 0.50120008 16267816
0.082614273 -0.052732714 0.50266689 16267813
0.08704567 -0.051991858 0.50199991 16267810
0.093823783 -0.05126112 0.50219226 16333089
0.097367056 -0.051342808 0.50340003 16267809
0.10147709 -0.050260711 0.50300008 16005665
-0.020470563 -0.047129255 0.5025 12529962
-0.019517198 -0.047256403 0.50253576 13903390
0.021634666 -0.047488969 0.50121421 9601927
0.065729558 -0.045258913 0.50100005 10965067
0.1034921 -0.048189271 0.50150007 15676963
0.10673045 -0.048041891 0.50399989 15152932
-0.020450197 -0.043103863 0.50199997 12921377
-0.019869631 -0.043103863 0.50200003 13576219
0.021698967 -0.041269075 0.50199991 9404291
0.064312577 -0.040537715 0.50200003 11034211
0.065729558 -0.044490606 0.50099999 10897985
0.10973842 -0.041526377 0.5 15940130
0.11073618 -0.041469995 0.5 16006179
-0.020434527 -0.037621357 0.50161541 13380133
-0.019646488 -0.037629034 0.50147623 14033948
0.02167676 -0.037663195 0.50275838 9272705
0.063731395 -0.037601817 0.50152636 10965076
0.11205146 -0.036542315 0.5 12998990
-0.020450195 -0.032646798 0.50199991 13510950
-0.019722184 -0.032830089 0.50199997 13968669
0.019530799 -0.03309181 0.5 9338499
0.021538313 -0.032889102 0.50323069 9732999
0.062773153 -0.032540932 0.50133973 11159108
-0.020450197 -0.029759873 0.50200003 13773602
-0.018066876 -0.026877796 0.50162506 12732230
0.019097596 -0.027217757 0.50212121 11313321
0.020493122 -0.027882166 0.50254548 11444649
0.061321303 -0.02717877 0.50187516 11222840
-0.016070182 -0.024109012 0.50160873 10918561
-0.011725342 -0.022440353 0.50123817 10853795
-0.0074543855 -0.021973528 0.5 10919331
-0.002452621 -0.02128851 0.50200039 10918818
0.0023739117 -0.021341207 0.50184608 10918818
0.013970437 -0.02201747 0.50100005 11971766
0.016906321 -0.023519881 0.50171739 11972023
0.059593003 -0.021719677 0.5030002 10765893
0.06066449 -0.02297713 0.50138468 11744556
0.058628246 -0.017385324 0.50203246 9381927
0.10746212 -0.01588494 0.5 11366510
0.057124577 -0.012689172 0.50214541 11154482
0.10743599 -0.012638285 0.50226164 10844280
0.054648153 -0.0061003966 0.50300002 10699835
0.056153968 -0.0082669593 0.50178385 11612969
0.10419029 -0.0060649882 0.50020003 10056051
0.10673045 -0.0080436524 0.50399995 10321534
0.053941082 -0.0025079481 0.50240535 10898249
0.055391379 -0.0035942083 0.50115383 12855078
0.10435692 -0.0045383712 0.50099999 9667460
0.052675795 0.0024633098 0.50140017 10962760
0.049802512 0.0093468828 0.50400001 10511209
0.051379133 0.0071331295 0.50191313 11093830
0.049620084 0.012390377 0.50215381 10570059
0.050394416 0.012390376 0.50215393 11482933
0.099335372 0.014093198 0.50099999 9863812
0.10156509 0.012285464 0.5032559 9865611
0.048702765 0.017069072 0.50206244 11419196
0.05037101 0.015598623 0.5 13248799
0.099435262 0.01677317 0.50235486 9930637
0.10041256 0.016924011 0.50247365 9997198
0.047608152 0.022352796 0.50224245 12139321
0.098051853 0.022811066 0.50266683 10654353
0.048394274 0.028331628 0.5019092 11885661
0.094502062 0.029710704 0.50200003 12690591
0.096311972 0.026151724 0.50113058 11247263
0.054334488 0.033685155 0.50099999 10920098
0.055107035 0.033685155 0.50100005 10854306
0.089499526 0.03476809 0.5 15614771
0.093334243 0.032947756 0.50201762 13077128
0.095469661 0.030673012 0.50199997 12037806
0.064246781 0.036905143 0.50300008 10919073
0.067532808 0.036795083 0.50150001 10853792
0.070609905 0.036685038 0.5 10919326
0.082310155 0.038371466 0.50199997 11962768
0.088715672 0.036513694 0.50080001 15547694
0.091914386 0.035606746 0.50315785 13462883
0.2394366 0.13435395 0.50355554 0
0.2427768 0.13386452 0.50298172 0
0.24695688 0.13390717 0.50293964 131072
0.23382777 0.13875717 0.50313169 65536
0.23742549 0.13734663 0.50198984 0
0.24221003 0.13606153 0.50062221 0
0.24747244 0.13623212 0.50072718 327680
0.25185835 0.1377382 0.50203604 131328
0.22949356 0.14424251 0.50355554 329218
0.23210211 0.14237031 0.50170958 65536
0.23593874 0.14075787 0.50005877 0
0.2524929 0.14048055 0.50099999 197632
0.22876231 0.14769201 0.50221509 460035
0.23064514 0.14629948 0.50057137 65792
0.2274705 0.15251015 0.50203198 657926
0.22466943 0.15956424 0.50339997 4012345
0.22609733 0.15727571 0.50179982 1249808
0.22434321 0.16309045 0.50230438 2236189
0.22531824 0.16187803 0.50202322 1710357
0.22349618 0.16731761 0.50239426 1644824
0.22500369 0.16550383 0.5 0
0.22229134 0.17272379 0.50181556 3749430
0.22519644 0.17470516 0.5 66048
0.21965961 0.17678329 0.50100005 4276540
0.22253273 0.17719895 0.50057572 2828836
0.22621189 0.17806697 0.5 65536
0.22379079 0.18138324 0.50065905 1513491
0.22709507 0.18225585 0.50029159 131841
0.23001523 0.18294805 0.5 65536
-0.011571831 -0.061146986 0.50819993 14622998
-0.0075636501 -0.061564259 0.50715393 14557207
-0.0025522297 -0.061249994 0.5049997 14623002
0.002492293 -0.06132064 0.5055818 14753816
0.0074820691 -0.061464638 0.50633359 14623255
0.012521818 -0.061563164 0.50771433 14492698
0.016797908 -0.060252681 0.50866663 12603725
-0.016665911 -0.058148474 0.50899988 14557208
-0.012930254 -0.059246685 0.50706691 14557206
0.014080421 -0.059366677 0.50500005 14622998
0.017861677 -0.057930619 0.5069176 11366512
0.021238245 -0.056000248 0.5071035 10721692
0.074677184 -0.055434596 0.50800002 16267561
0.077300772 -0.055350654 0.50723076 16202277
0.082290024 -0.055416394 0.5078333 16202531
0.019726109 -0.0545264 0.505 9734289
0.022614051 -0.052852117 0.50671029 10655389
0.069093846 -0.051661391 0.50728577 12728108
0.072200283 -0.05283875 0.50628573 15348509
0.077140734 -0.05441279 0.50725001 16136741
0.082290001 -0.054637622 0.5078333 16202278
0.087853037 -0.053399779 0.50574416 16267556
0.092498966 -0.053186648 0.50646436 16398114
0.097276121 -0.053529114 0.50840008 16071199
0.10234858 -0.051555127 0.50724483 16070947
0.10599761 -0.050466012 0.50700003 16267559
0.023637226 -0.048561193 0.50537497 10326422
0.064800262 -0.046415586 0.50733334 10380641
0.065734707 -0.046595387 0.50760001 10642783
0.10368135 -0.049395692 0.50500005 16202275
0.10890784 -0.048170179 0.50767869 14758439
0.11127474 -0.046086781 0.50700003 15217189
-0.021783533 -0.040666733 0.50600004 11627629
0.023666454 -0.040666725 0.50600004 9339268
0.064117782 -0.042350266 0.50776935 10382446
0.065215163 -0.04454663 0.50600004 10316387
0.11205657 -0.044440284 0.50700003 16005414
0.11580261 -0.040632702 0.50800002 11111045
-0.021783533 -0.037562817 0.5060004 11626603
0.023727618 -0.037657991 0.50730771 9338755
0.062498737 -0.036754303 0.50868964 10381933
0.1146468 -0.037197955 0.50569242 10652296
0.11567964 -0.037351217 0.50575018 10655382
-0.021793464 -0.032532878 0.50623107 11755359
0.023797411 -0.033283483 0.50880015 10259857
0.061850514 -0.032997116 0.50651449 10249828
0.11452443 -0.032735903 0.50543761 9602950
0.11563125 -0.032488044 0.50553858 10063246
-0.021699265 -0.029099494 0.50783342 12210505
-0.018625621 -0.025678264 0.50500005 12029071
0.02214963 -0.028110586 0.50700015 11707821
0.059753358 -0.025729116 0.50600004 10570825
0.060561925 -0.02693861 0.50730437 10570567
0.11476149 -0.029803012 0.50600004 9667976
0.11591721 -0.028115435 0.50839567 9800587
-0.018625621 -0.02471021 0.505 11510695
-0.012348582 -0.020841122 0.506549 10788002
-0.0085674757 -0.0205293 0.50609088 10853540
0.0023996921 -0.020644367 0.50500005 10853283
0.0075056669 -0.020182723 0.50799996 10919330
0.013338362 -0.02021583 0.50883335 11906742
0.018230259 -0.022316787 0.50760925 11906488
0.020822469 -0.024077959 0.50800002 11709110
0.05901438 -0.022113927 0.50719994 10440267
0.060413983 -0.024129376 0.50500005 10831682
0.11362763 -0.023145366 0.50672007 9996684
0.11501926 -0.0223251 0.50800002 10326163
-0.0056263548 -0.019246725 0.50899994 10656672
-0.0024868213 -0.019246714 0.50900024 10853025
0.0035289905 -0.019240424 0.50883329 10918817
0.0075056679 -0.019208916 0.5079999 11050914
0.013338362 -0.019240424 0.50883323 11840949
0.057481628 -0.017079329 0.50833338 8993851
0.10988488 -0.016029369 0.50600004 9930373
0.11139747 -0.01768291 0.50652647 10128266
0.054985203 -0.010229696 0.50700003 11092799
0.056169715 -0.012219829 0.50711775 10634303
0.10891429 -0.010759265 0.50623822 10258312
0.11116321 -0.013301215 0.50856751 10063245
0.054231297 -0.006811358 0.50726676 10373448
0.055620346 -0.008652878 0.50566673 10830135
0.10770275 -0.0072599612 0.50584614 9865097
0.05319047 -0.0025668486 0.50742567 10248544
0.10725987 -0.0036164927 0.50650018 9931147
0.051596105 0.0024160133 0.50745106 10185064
0.10601083 0.0043572593 0.50799996 10129041
0.049315482 0.0094396099 0.509 10183790
0.050599616 0.0062814993 0.50614303 10119018
0.1038861 0.0085963886 0.50528574 9931919
0.10615055 0.006278052 0.50855881 10195091
0.049053643 0.012673781 0.50704664 10311252
0.1035391 0.012348191 0.50676203 10063504
0.1052275 0.011563445 0.50800002 10327703
0.047526814 0.018679401 0.50785708 10376007
0.10281669 0.017008908 0.50770015 10260883
0.047175825 0.020788511 0.50500005 10507081
0.099156357 0.024903571 0.50600004 11181472
0.047222525 0.026623961 0.50550026 11492183
0.097918235 0.027815443 0.50535536 11708328
0.096683063 0.032513168 0.50666648 12038064
0.067380533 0.03897104 0.50772232 10722719
0.071211815 0.038758028 0.5054689 10788256
0.077195719 0.039790835 0.5078333 11050401
0.084302686 0.039725546 0.50700003 12692916
0.088619165 0.039107218 0.50644463 12866904
0.091319367 0.038165059 0.50688875 13129557
0.074824184 0.040857978 0.509 10788512
0.077195711 0.040764321 0.5078333 10985379
0.084302671 0.040697437 0.50700003 11775412
0.08637923 0.040754776 0.50771439 11776176
0.24377033 0.12925872 0.50899994 131584
0.24573255 0.12925874 0.50899994 0
0.23485182 0.1343741 0.50866669 525826
0.23782903 0.13329382 0.50719523 65792
0.24224886 0.13152911 0.50674683 65536
0.2475256 0.13165624 0.50689292 0
0.25194877 0.13348234 0.50723815 0
0.25523737 0.13484763 0.50800002 0
0.23328063 0.13759115 0.507393 394499
0.2361787 0.1357712 0.50619042 131072
0.25368005 0.13641821 0.50565845 65536
0.25592726 0.13694084 0.50747836 0
0.2291768 0.1434558 0.50741184 2960172
0.23082316 0.14136247 0.50688255 986638
0.22780345 0.1474621 0.50680006 3748660
0.22681008 0.15206334 0.50656515 4078646
0.22481003 0.15821226 0.50639999 5064008
0.22572631 0.1573122 0.50686395 4670019
0.22431421 0.16305423 0.50725394 4276030
0.22527933 0.16082126 0.50723076 4735815
0.22315872 0.16774854 0.50731593 2367519
0.22180729 0.17125449 0.50672007 4473151
-0.0024924392 -0.063483551 0.51007712 13188152
0.0026200579 -0.063474007 0.51000017 12928064
-0.014681299 -0.059367891 0.51000005 14557206
0.024059579 -0.053914528 0.51020014 10655902
0.024656072 -0.046297204 0.51033336 9997456
0.025635557 -0.047463622 0.51025015 10523803
-0.023235129 -0.042573158 0.51133305 10917784
0.024688281 -0.043419521 0.5110001 9602441
0.025673231 -0.042635873 0.5109998 9799821
0.065140873 -0.043725606 0.51000005 10251114
-0.023644639 -0.037618328 0.51063168 10525082
-0.02354279 -0.032403424 0.51030779 10721692
0.02389493 -0.030656064 0.51000011 11444136
0.023735644 -0.027041126 0.51173139 11839668
-0.017532408 -0.021420257 0.51261115 11446701
-0.014700492 -0.020874744 0.51066667 10722464
-0.0078000776 -0.020262182 0.51000005 10722468
0.0010472072 -0.020262182 0.51000005 10918817
0.018934241 -0.020953586 0.51129991 11906747
0.11429247 -0.020848768 0.51000011 10194832
-0.012506345 -0.019320231 0.51127642 10787746
-0.0076569053 -0.018345319 0.51231563 10656673
0.0020867893 -0.018284483 0.51246566 10853027
0.017128009 -0.019165486 0.51248002 11906747
0.054444984 -0.01173081 0.51238465 10377814
0.055749968 -0.013176579 0.51099998 10701126
0.05354926 -0.0075067068 0.51209688 10247002
0.055025026 -0.0095267557 0.51100004 10503487
0.10958319 -0.007057379 0.51052183 9931919
0.11106466 -0.0075433054 0.51121426 10195090
0.05202407 -0.0026774835 0.51249993 9988973
0.10871347 -0.0017283607 0.51105893 10194319
0.04951404 0.0028254043 0.51309091 10058111
0.050832402 0.0019004963 0.51217383 10185839
0.10867 0.0023110404 0.51208818 10458262
0.048912935 0.0078863194 0.5121429 9989492
0.050303537 0.0069904705 0.51080012 10381679
0.10752488 0.00778649 0.51177788 10524313
0.048159558 0.012483389 0.51183313 10248285
0.1048718 0.01440263 0.51200002 10326933
0.047121707 0.017586954 0.51205003 10442068
0.10361109 0.019096928 0.51109099 10458266
0.10566878 0.016436383 0.51286972 10590361
0.04637251 0.021042045 0.51116675 10442578
0.10375503 0.021091413 0.51233345 10787232
0.099546991 0.029206537 0.51000005 11840685
0.1019352 0.027411629 0.51222932 11709100
0.098920308 0.033082332 0.51130974 11972786
0.10086146 0.031161822 0.51252645 11841717
0.053158931 0.035798822 0.51200002 11117224
0.057388123 0.037986182 0.51321077 10854566
0.062590212 0.039053146 0.51149273 10788515
0.073988162 0.039960608 0.51000005 10854046
0.088733636 0.039960608 0.51000005 12612729
0.094241485 0.03850491 0.51164007 12364197
0.096885443 0.037488945 0.51244587 12038320
0.059509184 0.040274024 0.514 10722722
0.061691858 0.040148657 0.51240003 10722723
0.068706073 0.041190535 0.51314288 10656673
0.072382398 0.040954288 0.51107132 10788257
0.078454264 0.042794168 0.51350003 11117480
0.082531668 0.042580791 0.51300037 11644851
0.087565236 0.042219914 0.51238477 11710127
0.091347642 0.040838279 0.51120007 11708843
0.096092418 0.040242683 0.51359999 11907250
0.23934092 0.12932032 0.51299995 723718
0.2427161 0.12844059 0.51236308 394753
0.24755064 0.12800635 0.51252538 328448
0.25087902 0.12886377 0.51289672 131328
0.23417662 0.13419184 0.51276463 3157551
0.23722506 0.13188155 0.51182365 854793
0.24135613 0.13033733 0.51071441 197632
0.24862209 0.13032457 0.51050001 131072
0.25286913 0.13145672 0.51145005 0
0.25659564 0.13329558 0.5122779 0
0.23248707 0.13748601 0.51214308 3618101
0.23527257 0.13525215 0.51100004 526084
0.25826952 0.1360779 0.51151723 0
0.22924814 0.14299756 0.51192981 5788498
0.23083648 0.14106955 0.51271439 5065290
0.22789823 0.14707418 0.51214457 5919569
0.22641459 0.15271057 0.51200002 5591376
0.22466297 0.15896532 0.51210004 5262670
0.22581205 0.15694022 0.51190007 5327948
0.2244395 0.16234899 0.51248586 5130832
0.22533032 0.16128153 0.51188892 5065297
0.22333598 0.16759035 0.51199979 1381136
0.22193052 0.17212011 0.51241159 4735292
0.050690945 0.03423157 0.51499999 11315883
0.076103263 0.042919178 0.51500005 10788515
0.089405045 0.042919174 0.51500005 11776434
0.23828459 0.12884542 0.51683098 4341309
0.24223566 0.12679256 0.51691931 2564899
0.24725613 0.12576425 0.51666683 1315085
0.25258058 0.12714832 0.5166164 920331
0.23389149 0.1333347 0.51684207 6512223
0.23607294 0.13137656 0.51619989 4867913
0.25860521 0.13187665 0.51668775 0
0.26108041 0.13313623 0.51724994 0
0.23152034 0.13751993 0.5168823 6512478
0.22909014 0.14295469 0.51686692 6380125
0.23061453 0.14073612 0.51665521 6314589
0.22761053 0.14768748 0.5170241 6314331
0.22679511 0.15186316 0.51726234 5986393
0.2246066 0.15862222 0.51500005 5656913
0.22572261 0.15762264 0.51693451 5788241
0.22427803 0.16287799 0.51652944 5590608
0.22526847 0.16118987 0.51780009 5722706
0.22352964 0.16737963 0.51678932 2696740
0.22189257 0.17227358 0.5171001 4078909
0.22129345 0.17529343 0.51700002 4474696
0.22079825 0.1764046 0.52058834 4605766
-0.086809233 -0.096104242 0.53149992 8221545
-0.086711861 -0.092922941 0.53161901 8221035
-0.086875975 -0.08734709 0.53300035 8418926
-0.086054474 -0.082336016 0.53363657 9669508
-0.082494065 -0.08253561 0.5310905 12566464
-0.090733767 -0.075705729 0.53350002 7695458
-0.087107472 -0.077302255 0.53316712 8485234
-0.090937689 -0.073449336 0.53240001 7629665
-0.090604961 -0.085569464 0.537 7695195
-0.089214124 -0.085505717 0.53659999 7629660
-0.091539264 -0.081647053 0.53692877 5852999
-0.0884386 -0.082729548 0.53618139 7431776
-0.092137225 -0.07779523 0.53604728 6511182
-0.088907398 -0.079068154 0.53550005 5259830
-0.087470137 0.082695067 0.54266649 12436163
-0.086587906 0.087062493 0.54287499 12106169
-0.091217905 0.083947293 0.54666662 8682869
-0.089223467 0.08386559 0.54500002 11776430
-0.09145008 0.087580562 0.54835695 8748407
-0.088803455 0.087983243 0.54564267 11579564
-0.091411754 0.092122331 0.54823059 8354160
-0.089045361 0.092011027 0.54554534 11381414
-0.091098554 0.12471779 0.54700005 10723489
-0.091327548 0.1275824 0.54753345 9076339
-0.08933261 0.12748283 0.54566646 10787727
-0.091270916 0.13203153 0.54687256 9205869
-0.095302425 0.14843686 0.5473333 6842208
-0.095592625 0.15183495 0.54899991 7038557
-0.094017982 0.087723479 0.55218178 8224120
-0.0942192 0.092578962 0.55336356 8158067
-0.093816735 0.12872837 0.55099994 8683385
-0.093710341 0.13232651 0.5503751 8486266
-0.097038902 0.14979202 0.55000001 6841950
-0.096813507 0.15272278 0.55015075 6907230
-0.094706617 0.15443103 0.55000001 8156013
-0.096762441 0.15532617 0.55072737 6972250
-0.092860319 0.15845011 0.55052835 11250606
-0.092983589 0.16253407 0.55130434 11513780
-0.093109019 0.16744162 0.5516088 11250606
-0.096036114 0.17297074 0.55399996 7104870
-0.093664177 0.17123318 0.55210006 10724261
-0.096864715 0.16277316 0.55625802 7038562
-0.097399235 0.16680159 0.55784601 6775389
-0.10053029 0.16625617 0.56 6709081
-0.099666774 0.16625617 0.56 6774617
