# .PCD v0.7 - Point Cloud Data file format
VERSION 0.7
FIELDS x y z rgb
SIZE 4 4 4 4
TYPE F F F U
COUNT 1 1 1 1
WIDTH 222
HEIGHT 1
VIEWPOINT 0 0 0 1 0 0 0
POINTS 222
DATA ascii
-0.012253593 -0.050032236 0.48400003 14294810
0.0093900673 -0.050032236 0.48400003 14359829
0.011069316 -0.050032236 0.48400003 14359831
-0.012008418 -0.047207162 0.48379764 14229017
-0.0075715389 -0.047507968 0.482858 14294552
-0.0025437318 -0.04748074 0.48257232 14294296
0.0024781032 -0.047458895 0.4823519 14294037
0.0074659265 -0.04744406 0.48270914 14294294
0.011697994 -0.047176484 0.48352414 14294296
-0.012042817 -0.043102667 0.4838995 14098459
-0.0075724772 -0.042515006 0.48292392 14098200
-0.0025407202 -0.042433742 0.48200011 14229529
0.0024762123 -0.042433705 0.48199996 14229528
0.007493143 -0.042433742 0.48200011 14294809
0.011695358 -0.04253561 0.48235115 14360601
-0.010760926 -0.037970804 0.48400003 14229530
-0.0075777764 -0.037539154 0.48322624 14295066
-0.0025423216 -0.037457213 0.48216891 14295067
0.0024762128 -0.03744432 0.48200011 14294807
0.0074931439 -0.037444286 0.48200026 14294807
0.011581014 -0.037444323 0.48199949 14360600
-0.0075792223 -0.032542929 0.48330855 14295067
-0.0025445556 -0.03248696 0.48247847 14294809
0.0024762121 -0.032454874 0.48199996 14294809
0.0074931434 -0.032454874 0.48200011 14360089
0.011723636 -0.032419775 0.48236245 14491419
-0.0075792237 -0.028466456 0.48330826 14230044
-0.0025452762 -0.028431529 0.48272258 14360860
0.0026528041 -0.028198957 0.48258904 14295579
0.0075029414 -0.027684702 0.48263773 14295580
0.011653421 -0.027993588 0.48339647 14361117
-0.015552993 -0.050258633 0.48800001 14294810
-0.012540452 -0.051192641 0.48725927 14294552
-0.0074536921 -0.052130807 0.48691228 14294549
-0.0024639692 -0.052139573 0.48661181 14360088
0.0024320222 -0.052133985 0.48702696 14359832
0.00699087 -0.051821936 0.48719984 14294039
0.012200737 -0.051064078 0.48730773 14294296
-0.015526021 -0.047370587 0.48715401 14294808
-0.013962144 -0.048692428 0.48576474 14294809
0.014028823 -0.047708031 0.48631278 14097949
0.015882509 -0.046384569 0.48857147 11944258
-0.015526021 -0.042513292 0.48715401 14360863
-0.013225061 -0.041242376 0.4853811 14164252
0.014161737 -0.042199824 0.48506799 14033695
0.01583392 -0.042507585 0.48707697 11487566
-0.015578484 -0.038346764 0.48880011 14360862
-0.01300256 -0.037363771 0.48606154 14229533
0.014083685 -0.037491418 0.48500025 13902114
0.015840707 -0.037480209 0.48728576 11229281
-0.015584862 -0.031051453 0.48899996 14295572
-0.012343599 -0.032431941 0.48601779 14229530
0.014252861 -0.032695156 0.48651665 13574432
0.01589644 -0.033301178 0.48900017 11166312
-0.015584863 -0.029364159 0.48899999 14165017
-0.012202928 -0.027929747 0.48621219 14033694
-0.0076155257 -0.026182039 0.4856154 13641249
-0.0023636492 -0.025909593 0.48605272 13510177
0.0021589582 -0.02578599 0.48648509 13444383
0.0076639852 -0.025220199 0.48776186 13445148
0.01326547 -0.02725311 0.48746681 13444899
-0.0018235749 -0.024489744 0.48900002 11564159
0.0025100978 -0.024478184 0.48876926 11756907
0.0072100214 -0.02450577 0.48751619 11685449
0.010972674 -0.024439665 0.48799995 11487044
-0.010602382 -0.055611428 0.49399999 14229015
-0.0073454739 -0.055455551 0.49261534 14294550
-0.0024037841 -0.055394918 0.49207693 14359832
0.0025327224 -0.05549885 0.49300003 14360341
0.0071002035 -0.055539783 0.49336371 14360084
-0.015712345 -0.051907647 0.49300003 14229019
-0.012212642 -0.053357951 0.4919284 14294551
-0.0077461763 -0.054582745 0.49275002 14360087
-0.0024037843 -0.054640308 0.49207699 14425624
0.0029528395 -0.054623436 0.49300003 14360090
0.0079648057 -0.053830598 0.49178249 14359830
0.012498574 -0.052980278 0.49192855 14294552
0.015853776 -0.050941225 0.49199995 12597304
-0.017019669 -0.047308352 0.49233341 14163992
0.017284729 -0.047758043 0.49235797 10250863
-0.01701612 -0.042578682 0.49223086 14361118
0.01770097 -0.042559598 0.49200022 9599359
-0.016801242 -0.037258655 0.49276471 14295324
-0.014861148 -0.035811473 0.49000001 14229530
0.017713817 -0.037492637 0.49235719 9534083
-0.016606957 -0.032820754 0.49247366 14295321
-0.01486115 -0.033557139 0.49000001 14295575
0.017293379 -0.03215367 0.49259257 9795453
-0.016146079 -0.028010143 0.49266672 13772065
-0.013240051 -0.026219379 0.49110517 12662582
-0.0075008948 -0.025309706 0.49035713 11156545
-0.0042829555 -0.02529127 0.49000001 11743029
0.013994441 -0.025923394 0.4905999 13380395
0.016145993 -0.027723713 0.49281344 10974079
-0.011505775 -0.024632836 0.4918572 11900318
-0.0067181261 -0.024018405 0.49207535 11440798
-0.0025715146 -0.023509502 0.49366173 11115171
0.002534243 -0.023392508 0.49353844 11311780
0.007474096 -0.023366995 0.49300003 11377056
0.01185686 -0.023760652 0.49245453 11304321
0.01526626 -0.024690071 0.49300003 12025987
-0.01206435 -0.05634623 0.49780005 14229015
-0.0074145216 -0.057309568 0.49723059 14294293
-0.0024233074 -0.057167683 0.49600017 14294295
0.0025540229 -0.057291824 0.49707681 14360088
0.0077660512 -0.057246629 0.49787906 14360084
0.011703079 -0.056198232 0.49704874 14294552
-0.016327163 -0.052958719 0.49755561 14229016
-0.01354172 -0.054488301 0.49700007 14360343
0.009603478 -0.054775111 0.49500003 14425622
0.012659375 -0.054462828 0.49561533 14294810
0.017313175 -0.05240915 0.49730015 10575972
0.020453569 -0.05005233 0.49900001 9405831
-0.01871375 -0.047565192 0.49700004 13902359
0.019446172 -0.04745606 0.49783331 9272962
0.020405747 -0.04745606 0.49783334 9404550
-0.018705331 -0.042469904 0.49705437 14099481
0.019386571 -0.042552736 0.49630776 9272707
0.020266136 -0.042992365 0.49650002 9338244
-0.01856688 -0.037135828 0.49820003 14295578
0.019463839 -0.036225438 0.49828574 9271939
0.02042429 -0.036225442 0.4982858 9141123
-0.018565156 -0.032397322 0.49815392 14295833
0.019258834 -0.033080429 0.4985199 9403526
0.020453569 -0.033599563 0.49900004 9338246
-0.016949277 -0.027447734 0.49688375 13317686
-0.013961426 -0.025539504 0.49581823 11559782
0.017874194 -0.027546687 0.49768847 10786464
-0.015487741 -0.024558619 0.49800006 10918815
-0.012449644 -0.023739053 0.49707144 11050148
-0.007583735 -0.023024023 0.4961431 10919336
-0.0024379641 -0.021929579 0.4990001 10853542
0.0025621045 -0.021922808 0.49884617 11050149
0.0075498973 -0.021885624 0.49799979 10984359
0.012637558 -0.022783848 0.49680936 11575723
0.015933035 -0.024028264 0.49800009 11906229
-0.011390852 -0.060164064 0.50357145 14426392
-0.009050373 -0.060095794 0.50300002 14426396
0.0084013306 -0.060095794 0.50300002 14557211
0.011713022 -0.060170464 0.50362498 14557214
-0.011812564 -0.05852484 0.50257504 14229015
-0.007316405 -0.059294604 0.50163835 14360088
-0.0024477355 -0.059280634 0.50099987 14360344
0.0025764699 -0.059317034 0.50130767 14425625
0.0074590091 -0.059352133 0.50262809 14491414
0.012974502 -0.058049284 0.50239694 14294810
0.016537562 -0.056290887 0.50246686 12141122
-0.017847385 -0.053490911 0.50255567 14098457
0.0187754 -0.053924758 0.50300014 9471116
0.020895744 -0.051895685 0.5030002 9931924
0.021744885 -0.047482729 0.50216687 9536649
0.021544145 -0.040537715 0.50199997 9207172
-0.020473959 -0.037115369 0.50258344 13380137
-0.01963192 -0.037260395 0.50251853 14099484
0.021663584 -0.037639834 0.5024519 9141123
-0.020490931 -0.032904677 0.50300014 13641512
-0.0197153 -0.032904673 0.50300014 14099485
0.021728083 -0.032852247 0.50381809 9667467
-0.018100971 -0.027110532 0.50180012 12861763
0.019097596 -0.027217755 0.50212121 11313836
0.020493124 -0.02788217 0.50254554 11445167
-0.016154002 -0.024063021 0.50199997 10787745
-0.011569704 -0.022334198 0.50120002 10788259
-0.0082253916 -0.021973519 0.5 10788006
-0.0018096979 -0.020677024 0.50351614 10918817
0.0029741486 -0.020683939 0.5034706 10919078
0.013970436 -0.022017477 0.50100005 11906233
0.017433744 -0.023516681 0.5027588 11841208
-0.0009062445 -0.019984074 0.50300002 10918816
0.0034889998 -0.019984074 0.50300002 10853541
-0.015437397 -0.060227204 0.509 14492182
-0.011937833 -0.061465047 0.50841182 14426651
-0.0075487401 -0.061442878 0.50615388 14491677
-0.0024672786 -0.061302796 0.5049997 14491931
0.0025970195 -0.061340176 0.50530761 14491929
0.0074820686 -0.061464667 0.50633359 14492185
0.012521818 -0.061563153 0.50771433 14230302
0.016787583 -0.060213115 0.50833327 12406864
-0.015437398 -0.05925148 0.509 14557463
-0.013822738 -0.059251852 0.50733334 14360344
0.014080421 -0.059366681 0.50500005 14360860
0.018002676 -0.05794647 0.50733346 11170421
0.021211252 -0.056008626 0.50790632 10655902
0.01976517 -0.054440372 0.50600004 9931669
0.022596046 -0.052456107 0.50732231 10327196
0.023683468 -0.047686048 0.50636387 9997717
-0.021631135 -0.041524615 0.50700003 11558759
0.023666458 -0.043382656 0.50600022 9405066
-0.021788644 -0.037646569 0.50654733 11626349
0.023759998 -0.035763666 0.50799996 9600390
-0.021773275 -0.032477178 0.50700003 11885154
0.023785191 -0.032680847 0.50853872 10457496
-0.021506023 -0.029179495 0.50866657 12535623
-0.018625621 -0.025678264 0.50500005 11570834
0.022286918 -0.028249037 0.50714844 11642545
-0.01695624 -0.022824302 0.50840735 11050920
-0.012348583 -0.020841124 0.506549 10722212
-0.0082379207 -0.020400103 0.50731581 10788261
-0.0042528091 -0.020222452 0.509 10918822
0.0010451538 -0.020222452 0.509 10919076
0.0075056665 -0.020182723 0.50799996 10853544
0.013765102 -0.020584742 0.50639999 11709369
0.017522451 -0.021589167 0.5074665 11840955
0.020822469 -0.024077956 0.50800002 11774902
-0.0073923427 -0.019246712 0.50900018 10722213
-0.0024868215 -0.019246714 0.50900024 10853282
0.0026117584 -0.019232176 0.50861549 10787749
0.0075056669 -0.019208906 0.5079999 10985130
0.010051526 -0.019208912 0.50800002 11380144
-0.023324091 -0.042725615 0.51159161 10655644
-0.023536908 -0.037633568 0.51124984 10459038
-0.023536908 -0.032610398 0.51124984 10720925
0.023735642 -0.027041137 0.51173133 11774388
-0.017224217 -0.021470731 0.51216674 11380655
-0.014700492 -0.020874744 0.51066667 10591140
0.013826619 -0.020262182 0.51000005 11906746
0.019303838 -0.021150859 0.51099998 11840955
0.021837207 -0.022664484 0.51235282 11840695
-0.012515489 -0.019333096 0.51161706 10656678
0.0073825284 -0.017630517 0.51307726 11248046
0.012795494 -0.018085269 0.5125652 11775161
0.016654506 -0.019149411 0.51214641 11906748
