# .PCD v0.7 - Point Cloud Data file format
VERSION 0.7
FIELDS x y z rgb
SIZE 4 4 4 4
TYPE F F F U
COUNT 1 1 1 1
WIDTH 1190
HEIGHT 1
VIEWPOINT 0 0 0 1 0 0 0
POINTS 1190
DATA ascii
0.05154388 -0.064580381 0.53200001 12396841
0.040469162 -0.063152634 0.53200001 12004133
0.041289512 -0.063152634 0.53200001 12070955
0.047442134 -0.06376452 0.53200001 12594216
0.048467573 -0.063764527 0.53200001 12659238
0.049493011 -0.06376452 0.53200001 12659240
0.050518446 -0.063764527 0.53200001 12659243
0.05154388 -0.06376452 0.53200001 12593450
0.040469162 -0.06254074 0.53200001 12135207
0.041289512 -0.062540747 0.53200001 12201516
0.040469166 -0.061928857 0.53200001 12200489
0.041289512 -0.061928857 0.53200001 12463663
0.060772818 -0.05744167 0.53200001 11745596
0.061593164 -0.057441667 0.53200001 11287100
0.062208425 -0.05744167 0.53200001 9782858
0.033701278 -0.05621789 0.53200001 11214628
0.034521628 -0.05621789 0.53200001 11149857
0.060772814 -0.056625817 0.53200001 12268084
0.061593167 -0.056625817 0.53200001 12070962
0.062208425 -0.056625817 0.53200001 10301493
0.033701278 -0.055606 0.53200001 11083812
0.034521628 -0.055606 0.53200001 11149857
0.033701278 -0.054994114 0.53200001 11018274
0.034521628 -0.054994114 0.53200001 11084319
0.062481876 -0.054314237 0.53200001 10759209
0.063438952 -0.054382224 0.53200001 10048599
0.062413514 -0.05356637 0.53200001 11020837
0.063438952 -0.053566366 0.53200001 9980746
0.031650405 -0.052546557 0.53200001 10297634
0.032470752 -0.052546561 0.53200001 10690846
0.031650402 -0.05152674 0.53200001 10232357
0.032470755 -0.05152674 0.53200001 10625569
0.031650405 -0.05050692 0.53200001 10102054
0.032470752 -0.050506923 0.53200001 10625825
0.06446439 -0.048059363 0.53200001 10586757
0.065284744 -0.048059363 0.53200001 10064015
0.06446439 -0.047447477 0.53200001 10061956
0.065284744 -0.047447477 0.53200001 9735565
0.06446439 -0.046427656 0.53200001 9538438
0.065284744 -0.046427656 0.53200001 9539470
0.031650402 -0.045407843 0.53200001 9976638
0.032470755 -0.045407843 0.53200001 10500671
0.06446439 -0.045407839 0.53200001 9473162
0.065284744 -0.045407839 0.53200001 9605520
0.031650402 -0.044591993 0.53200001 9780285
0.032470755 -0.044591993 0.53200001 10370109
0.06446439 -0.044591993 0.53200001 9408141
0.065284744 -0.044591993 0.53200001 9737363
0.031650405 -0.043572176 0.53200001 9258054
0.032470752 -0.043572176 0.53200001 9977662
0.06446439 -0.043572176 0.53200001 9408398
0.065284744 -0.043572176 0.53200001 10000535
0.031650402 -0.042756323 0.53200001 9329766
0.032470755 -0.042756323 0.53200001 9058371
0.06446439 -0.042756323 0.53200001 9671314
0.065284744 -0.042756323 0.53200001 10461087
0.1114294 -0.04112462 0.53200001 1188433
0.11224975 -0.04112462 0.53200001 1188435
0.033701278 -0.040512729 0.53200001 9060936
0.03431654 -0.040512729 0.53200001 10237754
0.062413514 -0.040512729 0.53200001 9144713
0.063438952 -0.040512729 0.53200001 9933975
0.1114294 -0.040512729 0.53200001 1188433
0.11224975 -0.040512729 0.53200001 1188434
0.033701278 -0.03969688 0.53200001 8543068
0.03431654 -0.03969688 0.53200001 9122358
0.062481876 -0.039764866 0.53200001 9802900
0.063438952 -0.03969688 0.53200001 10393754
0.1114294 -0.039900839 0.53200001 1188433
0.11224975 -0.039900839 0.53200001 1122640
0.035547066 -0.037249316 0.53200001 9993856
0.036367416 -0.037249319 0.53200001 9199713
0.13378394 -0.037453283 0.53200001 203128
0.13460428 -0.037453283 0.53200001 203128
0.035547066 -0.03643347 0.53200001 10063760
0.036367416 -0.03643347 0.53200001 10127752
0.13378394 -0.036637433 0.53200001 72570
0.13460428 -0.036637433 0.53200001 72572
0.036777589 -0.035413653 0.53200001 9932172
0.037392851 -0.035413653 0.53200001 9800582
0.038008112 -0.035413653 0.53200001 9471355
0.036777589 -0.034393836 0.53200001 9867152
0.037392851 -0.034393836 0.53200001 9604236
0.038008112 -0.034393836 0.53200001 9670285
0.14055182 -0.034189872 0.53200001 400762
0.14137216 -0.034189872 0.53200001 401014
0.05564563 -0.033577986 0.53200001 10724259
0.056465983 -0.033577986 0.53200001 10724259
0.14055182 -0.033577986 0.53200001 466555
0.14137216 -0.033577986 0.53200001 400761
0.041699689 -0.032150242 0.53200001 9801871
0.042520035 -0.032150242 0.53200001 9867152
0.043545473 -0.032150242 0.53200001 9801871
0.044365823 -0.032150242 0.53200001 9801869
0.050723534 -0.032150242 0.53200001 10788517
0.05154388 -0.032150242 0.53200001 10657443
0.052569319 -0.032150242 0.53200001 10788515
0.053389668 -0.032150242 0.53200001 10657699
0.05564563 -0.032762133 0.53200001 10724005
0.05646598 -0.032762129 0.53200001 10724005
0.10281573 -0.032354206 0.53200001 8685194
0.10343099 -0.032354206 0.53200001 8553612
0.14055182 -0.032966096 0.53200001 466556
0.14137216 -0.032966096 0.53200001 466556
0.14362812 -0.032354206 0.53200001 662906
0.14444847 -0.032354206 0.53200001 662905
0.14506374 -0.032354206 0.53200001 662906
0.041699689 -0.031538352 0.53200001 9801872
0.042520035 -0.031538352 0.53200001 9801872
0.043545473 -0.031538352 0.53200001 9801871
0.044365823 -0.031538352 0.53200001 9801870
0.050723534 -0.031538352 0.53200001 10722981
0.051543888 -0.031538356 0.53200001 10657444
0.052569315 -0.031538352 0.53200001 10788773
0.053389668 -0.031538352 0.53200001 10789286
0.10281573 -0.031538352 0.53200001 8619913
0.10343099 -0.031538352 0.53200001 8422795
0.14362812 -0.031538352 0.53200001 531839
0.14444847 -0.031538352 0.53200001 531840
0.14506374 -0.031538352 0.53200001 531839
0.041699689 -0.030926464 0.53200001 9801873
0.042520035 -0.030926464 0.53200001 9801873
0.043545473 -0.030926464 0.53200001 9933457
0.044365823 -0.030926464 0.53200001 9999250
0.050723534 -0.030926464 0.53200001 10789287
0.05154388 -0.030926464 0.53200001 10789287
0.052569319 -0.030926464 0.53200001 10789287
0.053389668 -0.030926464 0.53200001 10789287
0.14547391 -0.030518539 0.53200001 466556
0.14649935 -0.030518537 0.53200001 466552
0.14547391 -0.029702686 0.53200001 400765
0.14649935 -0.029702686 0.53200001 466552
0.10076486 -0.027459092 0.53200001 8423822
0.1015852 -0.027459092 0.53200001 8423822
0.10076486 -0.026643239 0.53200001 8423823
0.1015852 -0.026643237 0.53200001 8423823
0.14670444 -0.017260937 0.53200001 4475252
0.14752479 -0.017260937 0.53200001 7895957
0.14834513 -0.017260937 0.53200001 9146261
0.14670444 -0.016445085 0.53200001 6250626
0.14752479 -0.016445084 0.53200001 8487317
0.14834513 -0.016445085 0.53200001 9277075
0.14752479 -0.015833195 0.53200001 8619150
0.14834513 -0.015833195 0.53200001 9277075
0.14547391 -0.012161859 0.53200001 5857398
0.14649935 -0.012161859 0.53200001 8356489
0.14547391 -0.011549971 0.53200001 6645883
0.14649935 -0.01154997 0.53200001 8355977
0.097688541 -0.010122228 0.53200001 9013646
0.098508894 -0.010122228 0.53200001 4868443
0.14547391 -0.010734119 0.53200001 7434878
0.14649935 -0.010734119 0.53200001 8355977
0.097688541 -0.0095103402 0.53200001 10132385
0.098508894 -0.0095103402 0.53200001 6710902
0.097688541 -0.0088984501 0.53200001 10395558
0.098508894 -0.0088984501 0.53200001 9211034
0.10773783 -0.0015557787 0.53200001 9408661
0.10855818 -0.0015557787 0.53200001 9408661
0.14055182 -0.0015557788 0.53200001 1385601
0.14137216 -0.0015557787 0.53200001 4541846
0.10773783 -0.00053596334 0.53200001 9408661
0.10855818 -0.00053596328 0.53200001 9408661
0.10937853 -0.00033200023 0.53200001 9408661
0.13870603 -0.00033200023 0.53200001 467589
0.13952637 -0.00033200023 0.53200001 1122434
0.14055181 -0.00053596334 0.53200001 2043260
0.14137216 -0.00053596334 0.53200001 6450325
0.13870603 0.00048385214 0.53200001 1057414
0.13952637 0.00048385211 0.53200001 1515901
0.13686024 0.0017076308 0.53200001 3092861
0.13747551 0.0017076308 0.53200001 2501244
0.13850094 0.00143568 0.53200001 2172290
0.13952637 0.0012997045 0.53200001 2237820
0.12496517 0.0029314093 0.53200001 9540245
0.12558043 0.0029314093 0.53200001 9540245
0.13686024 0.0025234832 0.53200001 8423580
0.13747551 0.0025234835 0.53200001 7437200
0.13809076 0.0025234832 0.53200001 6319490
0.12476008 0.0035432987 0.53200001 9539989
0.12558043 0.0035432987 0.53200001 9737368
0.12476008 0.0043591512 0.53200001 9803162
0.12558043 0.0043591512 0.53200001 10132127
0.043627322 -0.064497419 0.53300005 12599873
0.044449221 -0.064497426 0.53300005 12402489
0.045476582 -0.064497426 0.53300005 12268586
0.046503946 -0.064497426 0.53300005 12398119
0.052668136 -0.064497419 0.53300005 12462374
0.053490028 -0.064497419 0.53300005 12462374
0.043627322 -0.063680038 0.53300005 12336442
0.044449218 -0.063680038 0.53300005 12730426
0.045476574 -0.063680038 0.53300005 12465962
0.046503946 -0.063680038 0.53300005 12660778
0.052668132 -0.063680038 0.53300005 12659238
0.053490028 -0.063680038 0.53300005 12659238
0.055750228 -0.063271344 0.53300005 12201005
0.056572121 -0.063271344 0.53300005 12004142
0.055750232 -0.062453955 0.53300005 12397354
0.056572113 -0.062453959 0.53300005 12200746
0.03684672 -0.061432227 0.53300005 11413022
0.037463136 -0.061432224 0.53300005 11413023
0.038079556 -0.061432227 0.53300005 11413025
0.059448738 -0.061432224 0.53300005 11876928
0.060476106 -0.061432224 0.53300005 11099487
0.035408407 -0.060001798 0.53300005 11215650
0.036538512 -0.060308322 0.53300005 11543584
0.037463136 -0.060614839 0.53300005 11543581
0.038079556 -0.060614839 0.53300005 11674654
0.059448745 -0.060614839 0.53300005 11745850
0.060517199 -0.060492229 0.53300005 10964300
0.035408407 -0.05938876 0.53300005 11280930
0.0362303 -0.05938876 0.53300005 11674402
0.035408407 -0.058571376 0.53300005 11346467
0.03616181 -0.058639493 0.53300005 11739938
0.033764627 -0.057549644 0.53300005 10952741
0.034586515 -0.057549644 0.53300005 11083812
0.033764623 -0.056732256 0.53300005 11214628
0.034586515 -0.056732256 0.53300005 11149857
0.06273631 -0.056323562 0.53300005 11025216
0.063558199 -0.056323562 0.53300005 10318968
0.06273631 -0.055506181 0.53300005 10891057
0.063558199 -0.055506181 0.53300005 10315113
0.031915367 -0.054484446 0.53300005 10493734
0.032531787 -0.054484446 0.53300005 10624803
0.033148207 -0.054484446 0.53300005 10821665
0.031915367 -0.053667061 0.53300005 10493986
0.032531787 -0.053667061 0.53300005 10690848
0.033148207 -0.053667061 0.53300005 10887710
0.064585567 -0.0512149 0.53300005 10322812
0.065407455 -0.0512149 0.53300005 9932427
0.064585567 -0.050397515 0.53300005 10388092
0.065407455 -0.050397515 0.53300005 9932683
0.064585567 -0.049580127 0.53300005 10322557
0.065407455 -0.049580127 0.53300005 9932427
0.064585567 -0.048762739 0.53300005 10257535
0.065407455 -0.048762742 0.53300005 9866636
0.031915367 -0.042223655 0.53300005 10118255
0.032531787 -0.042223655 0.53300005 9258577
0.033148207 -0.042223655 0.53300005 9977930
0.064585567 -0.042223655 0.53300005 9868951
0.065407455 -0.042223655 0.53300005 10592930
0.11492642 -0.042428002 0.53300005 662621
0.11554284 -0.042427998 0.53300005 596580
0.1165702 -0.042428002 0.53300005 596591
0.11759756 -0.042428002 0.53300005 728179
0.11841947 -0.042427998 0.53300005 728179
0.11944684 -0.042428002 0.53300005 793716
0.031915367 -0.041406266 0.53300005 10060423
0.032531787 -0.041406266 0.53300005 9001057
0.033148207 -0.041406266 0.53300005 8994378
0.064585559 -0.041406266 0.53300005 10197918
0.065407455 -0.041406266 0.53300005 10921640
0.1097896 -0.041201919 0.53300005 1386073
0.11061148 -0.041201919 0.53300005 1188690
0.11492642 -0.041610613 0.53300005 465242
0.11554284 -0.041610613 0.53300005 399715
0.1165702 -0.041610613 0.53300005 465519
0.11759757 -0.041610613 0.53300005 662898
0.11841945 -0.041610613 0.53300005 662898
0.11944682 -0.041610613 0.53300005 596851
0.12540554 -0.041201919 0.53300005 1254779
0.12622742 -0.041201919 0.53300005 2372992
0.1097896 -0.040588882 0.53300005 1057363
0.11061148 -0.040588882 0.53300005 1122897
0.12540554 -0.040588882 0.53300005 465779
0.12622742 -0.040588882 0.53300005 794226
0.033764623 -0.039158456 0.53300005 9600379
0.034586515 -0.039158456 0.53300005 10374996
0.06273631 -0.039158456 0.53300005 10328217
0.063558199 -0.039158456 0.53300005 10787742
0.10794034 -0.039362803 0.53300005 2175055
0.10855675 -0.039362799 0.53300005 1386580
0.10948139 -0.03966932 0.53300005 1057361
0.11061148 -0.039975841 0.53300005 1122898
0.12540554 -0.039975841 0.53300005 268916
0.12622742 -0.039975841 0.53300005 399734
0.13054235 -0.039362803 0.53300005 990835
0.13156973 -0.039362803 0.53300005 2042486
0.033764623 -0.038545415 0.53300005 9209736
0.034586515 -0.038545415 0.53300005 9400691
0.06273631 -0.038545415 0.53300005 10328988
0.063558199 -0.038545415 0.53300005 10592419
0.10794034 -0.038545415 0.53300005 1319753
0.10855675 -0.038545415 0.53300005 1451601
0.10917318 -0.038545415 0.53300005 1319507
0.13054235 -0.038545415 0.53300005 399726
0.13156973 -0.038545415 0.53300005 333933
0.033764623 -0.037932377 0.53300005 9604243
0.034586515 -0.037932377 0.53300005 10521488
0.060681578 -0.037319336 0.53300005 10460317
0.06150347 -0.037319336 0.53300005 10460574
0.062462345 -0.037523683 0.53300005 10592160
0.063558199 -0.037932377 0.53300005 10789798
0.10650203 -0.037523683 0.53300005 7108231
0.10732391 -0.037523683 0.53300005 3095393
0.060681578 -0.036501952 0.53300005 10591903
0.06150347 -0.036501952 0.53300005 10591904
0.062325362 -0.036501952 0.53300005 10657953
0.10465277 -0.036297604 0.53300005 8750729
0.10547467 -0.036297604 0.53300005 8225933
0.10650203 -0.036706299 0.53300005 5726328
0.10732392 -0.036706299 0.53300005 2240092
0.13876127 -0.036297604 0.53300005 597128
0.13958317 -0.036297604 0.53300005 596602
0.059448738 -0.035480216 0.53300005 10591905
0.060476106 -0.03548022 0.53300005 10591906
0.10465277 -0.03548022 0.53300005 8684936
0.10547467 -0.035480216 0.53300005 7962763
0.13876127 -0.035480216 0.53300005 203391
0.13958316 -0.03548022 0.53300005 268670
0.059448738 -0.034458488 0.53300005 10592673
0.060476106 -0.034458488 0.53300005 10592418
0.10465277 -0.034662832 0.53300005 8487811
0.10526919 -0.034662832 0.53300005 7962249
0.13876127 -0.034662832 0.53300005 334974
0.13958317 -0.034662832 0.53300005 334974
0.14245978 -0.034254141 0.53300005 466033
0.14348716 -0.034254141 0.53300005 663156
0.038695976 -0.033436757 0.53300005 9997966
0.039517865 -0.033436749 0.53300005 9997966
0.057599485 -0.033436757 0.53300005 10724003
0.058421377 -0.033436757 0.53300005 10724003
0.059037793 -0.033436753 0.53300005 10724003
0.14245978 -0.033436757 0.53300005 531579
0.14348716 -0.033436757 0.53300005 597113
0.038695976 -0.032619368 0.53300005 9997966
0.039517865 -0.032619368 0.53300005 10063759
0.054517388 -0.032210674 0.53300005 10658471
0.055339281 -0.032210674 0.53300005 10658471
0.057599485 -0.032619368 0.53300005 10724005
0.058421373 -0.032619368 0.53300005 10724005
0.059037793 -0.032619368 0.53300005 10724005
0.054517388 -0.031597637 0.53300005 10724007
0.055339281 -0.031597637 0.53300005 10724264
0.054517388 -0.030984595 0.53300005 10724264
0.055339281 -0.030984595 0.53300005 10724264
0.10157068 -0.029349824 0.53300005 8554636
0.1021871 -0.029349824 0.53300005 8554636
0.14759661 -0.029349824 0.53300005 532088
0.1484185 -0.029349824 0.53300005 662906
0.10157069 -0.028532436 0.53300005 8489101
0.1021871 -0.028532438 0.53300005 8423308
0.14759661 -0.028532438 0.53300005 531832
0.1484185 -0.028532436 0.53300005 597367
0.09951596 -0.024036817 0.53300005 8554638
0.10033785 -0.024036817 0.53300005 8423824
0.14944586 -0.024036817 0.53300005 5923717
0.15026775 -0.024036817 0.53300005 9015436
0.09951596 -0.023423776 0.53300005 8620174
0.10033785 -0.023423778 0.53300005 8358029
0.14944588 -0.023423776 0.53300005 6844813
0.15026775 -0.023423776 0.53300005 9015437
0.09951596 -0.022606391 0.53300005 8750989
0.10033785 -0.022606391 0.53300005 8358026
0.14944586 -0.022606393 0.53300005 7765649
0.15026775 -0.022606391 0.53300005 9146768
0.14944585 -0.02158466 0.53300005 8423829
0.15026775 -0.02158466 0.53300005 9541016
0.097666703 -0.020562928 0.53300005 8620429
0.098488592 -0.020562926 0.53300005 8750988
0.09931048 -0.020562928 0.53300005 8882060
0.14944586 -0.020767273 0.53300005 8949649
0.15026775 -0.020767273 0.53300005 9607062
0.097666703 -0.019541195 0.53300005 8620430
0.098488592 -0.019541195 0.53300005 8685709
0.09931048 -0.01974554 0.53300005 8816524
0.14759661 -0.015249918 0.53300005 8619150
0.1484185 -0.015249918 0.53300005 9211027
0.14759661 -0.014432533 0.53300005 8750219
0.1484185 -0.014432533 0.53300005 9276819
0.14554188 -0.010141256 0.53300005 7566461
0.14656925 -0.010141256 0.53300005 8421768
0.14554188 -0.009528216 0.53300005 7764100
0.14656925 -0.009528216 0.53300005 8553096
0.14574735 -0.0089151766 0.53300005 7961739
0.14656924 -0.0089151766 0.53300005 8619145
0.14369263 -0.0064630192 0.53300005 6055030
0.14451452 -0.0064630192 0.53300005 8093065
0.1453364 -0.0064630192 0.53300005 8750475
0.10157068 -0.00523694 0.53300005 9277845
0.10239257 -0.00523694 0.53300005 9212053
0.10300899 -0.00523694 0.53300005 9212054
0.14369263 -0.0056456327 0.53300005 6909813
0.14451452 -0.0056456327 0.53300005 8750987
0.1453364 -0.0056456327 0.53300005 9210766
0.10157069 -0.0044195536 0.53300005 9277845
0.10239258 -0.0044195536 0.53300005 9212053
0.10300899 -0.0044195536 0.53300005 9212054
0.14369263 -0.0040108608 0.53300005 8422534
0.14245978 -0.0033978214 0.53300005 5264768
0.14348716 -0.0033978217 0.53300005 9145751
0.14245977 -0.0025804355 0.53300005 6844046
0.14348716 -0.0025804355 0.53300005 9869472
0.11143338 -0.0003326243 0.53300005 9408661
0.11246074 -0.0003326243 0.53300005 9408659
0.11143338 0.00048476164 0.53300005 9408661
0.11246075 0.00048476164 0.53300005 9408659
0.11143338 0.0013021476 0.53300005 9474452
0.11246074 0.0013021476 0.53300005 9474706
0.12355628 0.0035499588 0.53300005 9474196
0.12437817 0.003549959 0.53300005 9540246
0.13382992 0.003549959 0.53300005 10790055
0.13444634 0.003549959 0.53300005 10790054
0.13506277 0.003549959 0.53300005 10789797
0.12355628 0.0043673445 0.53300005 9605783
0.12437817 0.004367345 0.53300005 9803162
0.13382992 0.004367345 0.53300005 10790055
0.13444634 0.004367345 0.53300005 10790055
0.13506277 0.004367345 0.53300005 10724262
0.038768575 -0.062571131 0.53399998 11675683
0.031975247 -0.056224503 0.53400004 10232106
0.032592826 -0.056224506 0.53400004 10428455
0.033210397 -0.056224503 0.53400004 10625061
0.031975247 -0.055405587 0.53400004 10428200
0.032592826 -0.055405583 0.53400004 10559270
0.033210397 -0.055405587 0.53400004 10756132
0.064706735 -0.052539367 0.53400004 10388607
0.030534238 -0.05131099 0.53400004 9446956
0.031151814 -0.051310986 0.53400004 9970728
0.064706735 -0.051925179 0.53400004 10322813
0.065530166 -0.051925179 0.53400004 9932426
0.030534238 -0.050492071 0.53400004 9578540
0.031151814 -0.050492071 0.53400004 9840169
0.030534238 -0.049468417 0.53399998 9775919
0.031151814 -0.049468417 0.53400004 9644330
0.030534238 -0.04844477 0.53400004 9580591
0.031151814 -0.04844477 0.53400004 9776173
0.030534238 -0.047421124 0.53399998 8730165
0.031151814 -0.047421124 0.53400004 9842997
0.030534238 -0.04639747 0.53400004 8999248
0.031151814 -0.04639747 0.53400004 9581369
0.030534238 -0.045578551 0.53400004 9071204
0.031151814 -0.045578551 0.53400004 9517373
0.030534238 -0.044759631 0.53400004 9207412
0.031151814 -0.044759631 0.53400004 9256254
0.031975247 -0.040460303 0.53400004 10261658
0.032592822 -0.040460303 0.53399998 9863560
0.033210397 -0.040460303 0.53400004 9005166
0.064706735 -0.040460307 0.53399998 10658468
0.065530166 -0.040460303 0.53399998 11119020
0.031975247 -0.039641384 0.53400004 10720415
0.032592826 -0.039641384 0.53400004 9801108
0.033210397 -0.039641384 0.53400004 9144973
0.064706735 -0.039641384 0.53400004 10856103
0.065530166 -0.039641384 0.53400004 11316399
0.033622116 -0.037389357 0.53400004 9801623
0.03444555 -0.037389357 0.53399998 10129302
0.033622116 -0.036570437 0.53400004 9801620
0.03444555 -0.036570437 0.53399998 9605013
0.033622116 -0.035956249 0.53400004 9867666
0.03444555 -0.035956249 0.53400004 9539731
0.035474841 -0.035546787 0.53399998 9866640
0.036298275 -0.035546787 0.53399998 9997453
0.035474841 -0.034523141 0.53400004 9997968
0.036298275 -0.034523137 0.53400004 9997968
0.10340811 -0.03431841 0.53400004 8750733
0.10423155 -0.03431841 0.53400004 8619145
0.10340812 -0.03349949 0.53399998 8619147
0.10423156 -0.03349949 0.53399998 8487817
0.040415443 -0.03227111 0.53400004 9932945
0.041238874 -0.03227111 0.53400004 9801871
0.055854827 -0.03227111 0.53400004 10658471
0.056472398 -0.03227111 0.53400004 10658471
0.057089977 -0.03227111 0.53400004 10658471
0.040415443 -0.03145219 0.53399998 9801873
0.041238874 -0.03145219 0.53399998 9801872
0.055854827 -0.03145219 0.53400004 10724264
0.056472402 -0.03145219 0.53399998 10724264
0.057089973 -0.03145219 0.53400004 10724264
0.10176125 -0.03104273 0.53400004 8685706
0.10258468 -0.03104273 0.53400004 8685706
0.043915033 -0.03042854 0.53400004 10065046
0.044532612 -0.03042854 0.53400004 10130839
0.045561906 -0.030428542 0.53399998 10459805
0.046591192 -0.03042854 0.53400004 10591138
0.047414631 -0.03042854 0.53400004 10591395
0.048443917 -0.030428542 0.53399998 10592421
0.049473211 -0.03042854 0.53400004 10724007
0.050502505 -0.030428538 0.53399998 10723751
0.051531799 -0.03042854 0.53400004 10789287
0.052149374 -0.03042854 0.53400004 10789287
0.10176125 -0.03042854 0.53400004 8685706
0.10258468 -0.03042854 0.53400004 8619913
0.043915033 -0.029609621 0.53400004 10393759
0.044532612 -0.029609621 0.53400004 10459552
0.045561906 -0.029609621 0.53399998 10656934
0.046591192 -0.029609621 0.53400004 10722985
0.047414631 -0.029609621 0.53400004 10657961
0.048443917 -0.029609621 0.53399998 10658216
0.049473211 -0.029609621 0.53400004 10724009
0.050502505 -0.029609621 0.53399998 10724008
0.051531799 -0.029609622 0.53400004 10789287
0.052149374 -0.029609621 0.53400004 10789287
0.10176125 -0.029814351 0.53400004 8554636
0.10258468 -0.029814351 0.53400004 8488843
0.099908523 -0.026129214 0.53400004 8685708
0.1005261 -0.026129214 0.53400004 8554638
0.099908523 -0.025515024 0.53400004 8554638
0.1005261 -0.025515025 0.53400004 8423824
0.099908523 -0.024696104 0.53400004 8554638
0.1005261 -0.024696104 0.53400004 8423824
0.097849943 -0.022239344 0.53400004 8620429
0.098467514 -0.022239344 0.53400004 8685708
0.099393882 -0.022136979 0.53400004 8816524
0.097849943 -0.021420423 0.53400004 8620429
0.098467514 -0.021420423 0.53400004 8685708
0.099496812 -0.021420425 0.53399998 8816524
0.099908523 -0.020806234 0.53400004 8882060
0.1495204 -0.020396775 0.53400004 8949905
0.15034384 -0.020396775 0.53400004 9409941
0.1495204 -0.019577855 0.53399998 9343637
0.15034384 -0.019577853 0.53399998 9606551
0.096408933 -0.017325826 0.53400004 8883087
0.097438224 -0.017325828 0.53399998 8817295
0.096408933 -0.016506907 0.53400004 9013901
0.097438224 -0.016506908 0.53399998 8817293
0.096408933 -0.015483257 0.53399998 9014154
0.097232364 -0.015483257 0.53399998 8948107
0.096408933 -0.014459609 0.53400004 9079690
0.097232364 -0.014459608 0.53400004 8948361
0.096408933 -0.01343596 0.53399998 9145483
0.097232364 -0.01343596 0.53399998 9014154
0.14766768 -0.01343596 0.53400004 8882058
0.14849111 -0.01343596 0.53399998 9210770
0.096408933 -0.012412312 0.53400004 9408404
0.097232364 -0.012412312 0.53400004 9145230
0.14766768 -0.012412311 0.53400004 8816526
0.14849111 -0.01241231 0.53399998 9211029
0.096408933 -0.01159339 0.53400004 10066336
0.097232364 -0.011593391 0.53400004 9671576
0.096408933 -0.010774473 0.53400004 10592680
0.097232364 -0.010774473 0.53400004 10000541
0.097849943 -0.0083177136 0.53400004 10527144
0.098467514 -0.0083177136 0.53400004 10132386
0.099085093 -0.0083177136 0.53400004 9869214
0.097849943 -0.0074987942 0.53400004 10592937
0.098467514 -0.0074987942 0.53400004 10263972
0.099085093 -0.0074987942 0.53400004 9671835
0.14396222 -0.0052467654 0.53400004 8159366
0.1445798 -0.0052467654 0.53400004 8685193
0.14540324 -0.0052467654 0.53400004 9342605
0.10361397 -0.0040183864 0.53400004 9408663
0.10402569 -0.0040183864 0.53400004 9342870
0.14396222 -0.0046325759 0.53400004 8225157
0.1445798 -0.0044278461 0.53399998 9277328
0.14540325 -0.0044278461 0.53399998 9803157
0.10340811 -0.0034041966 0.53400004 9277847
0.10443741 -0.0034041966 0.53399998 9212056
0.10340811 -0.002585277 0.53400004 9343638
0.10443741 -0.002585277 0.53399998 9277846
0.10670185 -0.0023805471 0.53400004 9277846
0.10752529 -0.0023805471 0.53400004 9277845
0.10670185 -0.0015616277 0.53399998 9343382
0.10752529 -0.0015616277 0.53399998 9408661
0.10670185 -0.00053797825 0.53400004 9343126
0.10752529 -0.00053797825 0.53400004 9408661
0.14231536 -0.00033324835 0.53400004 9343638
0.14066848 0.00048567113 0.53400004 1515888
0.14149192 0.0004856711 0.53399998 5989518
0.14231536 0.00048567113 0.53400004 10198436
0.11555377 0.0015093205 0.53399998 9342868
0.11658306 0.0015093205 0.53400004 9342868
0.13943334 0.0017140503 0.53400004 2237826
0.14046264 0.0015093205 0.53400004 2896242
0.14149192 0.0013045906 0.53400004 7501968
0.14231536 0.0013045906 0.53400004 10724264
0.11555377 0.0025329699 0.53399998 9342867
0.11658305 0.0025329699 0.53399998 9342867
0.13943334 0.0025329699 0.53399998 5397877
0.14025678 0.0025329699 0.53400004 5989500
0.12172952 0.0035566192 0.53400004 9342869
0.12255295 0.0035566192 0.53399998 9408662
0.13572788 0.0035566192 0.53400004 10723750
0.13655132 0.0035566192 0.53399998 10658213
0.12172952 0.0043755388 0.53400004 9342870
0.12255295 0.0043755388 0.53399998 9408663
0.13572788 0.0043755388 0.53400004 10790055
0.13655132 0.0043755388 0.53399998 10724262
0.062971711 -0.037459373 0.53500003 10723746
0.063590437 -0.037459373 0.53500003 10789798
0.064209171 -0.037459373 0.53500003 10921384
0.061528005 -0.03602358 0.53500003 10657953
0.062724218 -0.036269717 0.53500003 10789539
0.063590445 -0.036433805 0.53500003 10855591
0.064209171 -0.036433805 0.53500003 10921384
0.061528001 -0.03540824 0.53500003 10592162
0.062352981 -0.03540824 0.53500003 10724005
0.061528005 -0.034587786 0.53500003 10658212
0.062352981 -0.034587786 0.53500003 10724005
0.03698498 -0.033562217 0.53500003 9997712
0.037603714 -0.033562221 0.53500003 9997711
0.038222443 -0.033562217 0.53500003 9997710
0.059671808 -0.033562217 0.53500003 10724003
0.060496781 -0.033562221 0.53500003 10724004
0.03698498 -0.032741766 0.53500003 9997969
0.037603714 -0.032741766 0.53500003 9997968
0.038222443 -0.032741766 0.53500003 9997968
0.059671808 -0.032741766 0.53500003 10724005
0.060496781 -0.032741766 0.53500003 10724005
0.11061405 -0.00033387242 0.53500003 9408661
0.11123279 -0.00033387242 0.53500003 9408661
0.10999533 0.00048658063 0.53500003 9408663
0.11061405 0.00048658063 0.53500003 9408661
0.11123279 0.00048658063 0.53500003 9408661
0.10999532 0.0013070337 0.53500003 9474456
0.11061405 0.0013070337 0.53500003 9474454
0.11123279 0.0013070337 0.53500003 9474454
0.039533664 -0.032391973 0.53600001 9932945
0.039533664 -0.031569988 0.53600001 9801873
0.043459624 -0.030542504 0.53600001 9933461
0.043459624 -0.029720519 0.53600001 10262172
0.096770003 -0.010198336 0.53600001 10790059
0.097596526 -0.010198336 0.53600001 10658471
0.096770003 -0.0095818453 0.53600001 10921644
0.097596526 -0.0095818453 0.53600001 10855851
0.096770003 -0.0089653563 0.53600001 10921900
0.10040263 -0.0055151307 0.53619999 9540247
0.10124698 -0.0054034144 0.53600001 9343381
0.10048934 -0.0044444297 0.53600001 9540504
0.10131586 -0.0044444297 0.53600001 9343638
0.10565508 -0.0023894629 0.53600001 9343640
0.10627496 -0.0023894629 0.53600001 9343640
0.10544845 -0.0015674764 0.53600001 9146775
0.10627497 -0.0015674764 0.53600001 9212311
0.10544845 -0.00053999311 0.53600001 9212311
0.10627496 -0.00053999311 0.53600001 9212311
0.11392026 0.0015149734 0.53600001 9408913
0.11454014 0.0015149734 0.53600001 9408913
0.11516003 0.0015149734 0.53600001 9408913
0.11392025 0.0025424566 0.53600001 9474706
0.11454014 0.0025424566 0.53600001 9408913
0.11516003 0.0025424566 0.53600001 9408913
0.11949925 0.00295345 0.53600001 9342866
0.12011914 0.00295345 0.53600001 9342866
0.11949925 0.0035699396 0.53600001 9342866
0.12053239 0.0035699399 0.53600001 9342868
0.12156555 0.0035699396 0.53600001 9342869
0.11949925 0.0043919263 0.53600001 9342867
0.12053239 0.0043919268 0.53600001 9342869
0.12156555 0.0043919263 0.53600001 9342870
0.12652466 0.0054194094 0.53600001 10526885
0.1275578 0.0054194098 0.53600001 10658469
0.12859096 0.0054194094 0.53600001 10658726
0.12941745 0.0054194094 0.53600001 10658726
0.13045061 0.0054194098 0.53600001 10724262
0.13148376 0.0054194094 0.53600001 10790055
0.13251691 0.0054194098 0.53600001 10790055
0.13355005 0.0054194094 0.53600001 10855848
0.12652466 0.0062413961 0.53600001 10658471
0.1275578 0.0062413961 0.53600001 10658726
0.12859094 0.0062413961 0.53600001 10724519
0.12941745 0.0062413961 0.53600001 10724519
0.13045061 0.0062413961 0.53600001 10724519
0.13148376 0.0062413961 0.53600001 10790055
0.13251691 0.0062413961 0.53600001 10855848
0.13355005 0.0062413961 0.53600001 10855848
0.36648136 -0.11132443 0.79200006 0
0.36739731 -0.11132443 0.79200006 0
0.36831328 -0.11132443 0.79200006 0
0.36648136 -0.1104135 0.79200006 0
0.36739731 -0.1104135 0.79200006 0
0.36831325 -0.1104135 0.79200006 0
0.36648136 -0.10950257 0.79200006 0
0.36739731 -0.10950257 0.79200006 0
0.36831328 -0.10950257 0.79200006 0
0.35975459 -0.10947467 0.79400003 0
0.36067286 -0.10947467 0.79400003 0
0.36159113 -0.10947467 0.79400003 0
0.3622033 -0.10947467 0.79400003 0
0.35975459 -0.10856144 0.79400003 0
0.36067289 -0.10856144 0.79400003 0
0.36159113 -0.10856144 0.79400003 0
0.3622033 -0.10856144 0.79400003 0
0.35975459 -0.10734379 0.79400003 0
0.36067286 -0.1073438 0.79400003 0
0.36159113 -0.10734379 0.79400003 0
0.3622033 -0.10734379 0.79400003 0
0.36180595 -0.1105452 0.80400002 0
0.36242583 -0.1105452 0.80400002 0
0.36335567 -0.1105452 0.80400002 0
0.36180595 -0.10931223 0.80400002 0
0.36242583 -0.10931223 0.80400002 0
0.36335567 -0.10931223 0.80400002 0
0.36180595 -0.10838749 0.80400002 0
0.36242583 -0.10838749 0.80400002 0
0.36335567 -0.10838749 0.80400002 0
0.3827377 -0.12055881 0.80500007 0
0.38366869 -0.12055881 0.80500007 0
0.38459969 -0.12055881 0.80500007 0
0.38522035 -0.12055881 0.80500007 0
0.3827377 -0.1193243 0.80500007 0
0.38366869 -0.11932429 0.80500007 0
0.38459969 -0.1193243 0.80500007 0
0.38522035 -0.1193243 0.80500007 0
0.37280717 -0.11839841 0.80500007 0
0.37342781 -0.11839841 0.80500007 0
0.3743588 -0.11839841 0.80500007 0
0.37560013 -0.11839841 0.80500007 0
0.37653112 -0.11839841 0.80500007 0
0.37746212 -0.11839841 0.80500007 0
0.3827377 -0.11839841 0.80500007 0
0.38366869 -0.11839841 0.80500007 0
0.38459969 -0.11839841 0.80500007 0
0.38522035 -0.11839841 0.80500007 0
0.37280717 -0.11747253 0.80500007 0
0.37342781 -0.11747253 0.80500007 0
0.3743588 -0.11747253 0.80500007 0
0.37560013 -0.11747253 0.80500007 0
0.37653112 -0.11747253 0.80500007 0
0.37746209 -0.11747253 0.80500007 0
0.37280717 -0.11654664 0.80500007 0
0.37342781 -0.11654664 0.80500007 0
0.3743588 -0.11654664 0.80500007 0
0.37560013 -0.11654664 0.80500007 0
0.37653112 -0.11654664 0.80500007 0
0.37746212 -0.11654664 0.80500007 0
0.37280717 -0.11592938 0.80500007 0
0.37342781 -0.11592938 0.80500007 0
0.3743588 -0.11592938 0.80500007 0
0.37560013 -0.11592938 0.80500007 0
0.37653112 -0.11592938 0.80500007 0
0.37746212 -0.11592938 0.80500007 0
0.37964433 -0.11838317 0.80700004 0
0.38057762 -0.11838317 0.80700004 0
0.38119981 -0.11838317 0.80700004 0
0.37964433 -0.11745498 0.80700004 0
0.38057762 -0.11745498 0.80700004 0
0.38119981 -0.11745498 0.80700004 0
0.37964433 -0.1165268 0.80700004 0
0.38057762 -0.1165268 0.80700004 0
0.38119981 -0.1165268 0.80700004 0
0.3846395 -0.12363915 0.80900002 0
0.38557512 -0.12363915 0.80900002 0
0.38651073 -0.12363915 0.80900002 0
0.38713449 -0.12363915 0.80900002 0
0.3846395 -0.1223985 0.80900002 0
0.38557512 -0.1223985 0.80900002 0
0.38651073 -0.1223985 0.80900002 0
0.38713449 -0.1223985 0.80900002 0
0.37450799 -0.12131787 0.80800003 0
0.37544245 -0.12131787 0.80800003 0
0.37637693 -0.12131787 0.80800003 0
0.37762284 -0.12131787 0.80800003 0
0.37855732 -0.12131787 0.80800003 0
0.37918028 -0.12131787 0.80800003 0
0.38058519 -0.12146802 0.80900002 0
0.38159651 -0.12139294 0.80850005 0
0.38260663 -0.12131787 0.80800003 0
0.38354111 -0.12131787 0.80800003 0
0.37450799 -0.12038854 0.80800003 0
0.37544245 -0.12038854 0.80800003 0
0.37637693 -0.12038853 0.80800003 0
0.37762284 -0.12038853 0.80800003 0
0.37855732 -0.12038854 0.80800003 0
0.37918028 -0.12038854 0.80800003 0
0.38058519 -0.12053753 0.80900002 0
0.38159648 -0.12046303 0.80850005 0
0.38260663 -0.12038853 0.80800003 0
0.38354111 -0.12038854 0.80800003 0
0.37450799 -0.1194592 0.80800003 0
0.37544245 -0.1194592 0.80800003 0
0.37637693 -0.1194592 0.80800003 0
0.37762284 -0.1194592 0.80800003 0
0.37855732 -0.1194592 0.80800003 0
0.37918028 -0.1194592 0.80800003 0
0.38058519 -0.11960705 0.80900002 0
0.38159651 -0.11953312 0.80850005 0
0.38260663 -0.1194592 0.80800003 0
0.38354111 -0.1194592 0.80800003 0
0.37170464 -0.11852986 0.80800003 0
0.37263906 -0.11852986 0.80800003 0
0.37357354 -0.11852986 0.80800003 0
0.38260663 -0.11883964 0.80800003 0
0.38354111 -0.11883964 0.80800003 0
0.37170464 -0.11760053 0.80800003 0
0.37263906 -0.11760053 0.80800003 0
0.37357354 -0.11760053 0.80800003 0
0.37170464 -0.11667119 0.80800003 0
0.37263906 -0.11667119 0.80800003 0
0.37357354 -0.11667119 0.80800003 0
0.38261691 -0.12410253 0.81000006 0
0.38355368 -0.12410253 0.81000006 0
0.38449046 -0.12410253 0.81000006 0
0.38261691 -0.12348143 0.81000006 0
0.38355368 -0.12348143 0.81000006 0
0.38449046 -0.12348143 0.81000006 0
0.38261691 -0.12254979 0.81000006 0
0.38355368 -0.12254979 0.81000006 0
0.38449046 -0.12254979 0.81000006 0
0.3885498 -0.12161816 0.81000006 0
0.38948655 -0.12161816 0.81000006 0
0.39042333 -0.12161816 0.81000006 0
0.38854977 -0.12068653 0.81000006 0
0.38948655 -0.12068652 0.81000006 0
0.39042333 -0.12068652 0.81000006 0
0.37043887 -0.1191338 0.81000006 0
0.37137565 -0.1191338 0.81000006 0
0.37200016 -0.1191338 0.81000006 0
0.38854977 -0.11944435 0.81000006 1
0.38948655 -0.11944434 0.81000006 0
0.39042333 -0.11944435 0.81000006 0
0.37043887 -0.1185127 0.81000006 0
0.37137565 -0.1185127 0.81000006 0
0.37200016 -0.1185127 0.81000006 0
0.37043887 -0.11758107 0.81000006 0
0.37137565 -0.11758107 0.81000006 0
0.37200016 -0.11758107 0.81000006 0
0.36731631 -0.11633889 0.81000006 0
0.36856532 -0.11633889 0.81000006 0
0.3695021 -0.11633889 0.81000006 0
0.37033477 -0.1164424 0.81000012 0
0.37137565 -0.11664943 0.81000006 0
0.37200016 -0.11664943 0.81000006 0
0.36731631 -0.11540725 0.81000006 0
0.36856532 -0.11540725 0.81000006 0
0.3695021 -0.11540725 0.81000006 0
0.37012661 -0.11540725 0.81000006 0
0.36731631 -0.11447562 0.81000006 0
0.36856532 -0.11447562 0.81000006 0
0.3695021 -0.11447562 0.81000006 0
0.37012661 -0.11447562 0.81000006 0
0.3895092 -0.12440895 0.81200004 0
0.39044827 -0.12440895 0.81200004 0
0.39138734 -0.12440895 0.81200004 0
0.3895092 -0.12347502 0.81200004 0
0.39044827 -0.12347502 0.81200004 0
0.39138734 -0.12347502 0.81200004 0
0.3895092 -0.12254107 0.81200004 0
0.39044827 -0.12254107 0.81200004 0
0.39138734 -0.12254107 0.81200004 0
0.37354475 -0.12160714 0.81200004 0
0.37448382 -0.12160714 0.81200004 0
0.37542292 -0.12160714 0.81200004 0
0.37354475 -0.12036189 0.81200004 0
0.37448382 -0.12036189 0.81200004 0
0.37542292 -0.12036189 0.81200004 0
0.38152671 -0.12456216 0.81300002 0
0.38246694 -0.12456216 0.81300002 0
0.38340718 -0.12456216 0.81300002 0
0.38152671 -0.12362707 0.81300002 0
0.38246694 -0.12362707 0.81300002 0
0.38340718 -0.12362707 0.81300002 0
0.37195441 -0.12221875 0.81400001 0
0.37258202 -0.12221875 0.81400001 0
0.37352341 -0.12221875 0.81400001 0
0.38152671 -0.12269198 0.81300002 0
0.38246694 -0.12269198 0.81300002 0
0.38340718 -0.12269198 0.81300002 0
0.37195441 -0.12159459 0.81400001 0
0.37258202 -0.12159459 0.81400001 0
0.37352341 -0.12159459 0.81400001 0
0.37195441 -0.12065835 0.81400001 0
0.37258202 -0.12065835 0.81400001 0
0.37352338 -0.12065835 0.81400001 0
0.36944401 -0.11941004 0.81400001 0
0.37038541 -0.11941005 0.81400001 0
0.3713268 -0.11941004 0.81400001 0
0.36944401 -0.11847381 0.81400001 0
0.37038541 -0.11847381 0.81400001 0
0.3713268 -0.11847381 0.81400001 0
0.36944401 -0.11784965 0.81400001 0
0.37038541 -0.11784965 0.81400001 0
0.3713268 -0.11784965 0.81400001 0
0.37995178 -0.12455613 0.81500006 0
0.38058016 -0.12455613 0.81500006 0
0.38152272 -0.12455613 0.81500006 0
0.39377591 -0.12455613 0.81500006 0
0.39440426 -0.12455613 0.81500006 0
0.39534682 -0.12455613 0.81500006 0
0.39660358 -0.12455613 0.81500006 0
0.39754611 -0.12455613 0.81500006 0
0.39848867 -0.12455613 0.81500006 0
0.39943123 -0.12455613 0.81500006 0
0.40037376 -0.12455613 0.81500006 0
0.40163052 -0.12455613 0.81500006 0
0.40257308 -0.12455613 0.81500006 0
0.40320143 -0.12455613 0.81500006 0
0.37995178 -0.12361874 0.81500006 0
0.38058016 -0.12361874 0.81500006 0
0.38152272 -0.12361874 0.81500006 0
0.39377591 -0.12361874 0.81500006 0
0.39440426 -0.12361874 0.81500006 0
0.39534682 -0.12361874 0.81500006 0
0.39660358 -0.12361874 0.81500006 0
0.39754611 -0.12361874 0.81500006 0
0.39848867 -0.12361874 0.81500006 0
0.39943123 -0.12361874 0.81500006 0
0.40037376 -0.12361874 0.81500006 0
0.40163052 -0.12361874 0.81500006 0
0.40257308 -0.12361874 0.81500006 0
0.40320143 -0.12361874 0.81500006 0
0.37995178 -0.12299382 0.81500006 0
0.38058016 -0.12299382 0.81500006 0
0.38152272 -0.12299382 0.81500006 0
0.39377591 -0.12268136 0.81500006 0
0.39440426 -0.12268136 0.81500006 0
0.39534682 -0.12268136 0.81500006 0
0.39660358 -0.12268136 0.81500006 0
0.39754611 -0.12268136 0.81500006 0
0.39848867 -0.12268136 0.81500006 0
0.39943123 -0.12268136 0.81500006 0
0.40037376 -0.12268136 0.81500006 0
0.40163052 -0.12268136 0.81500006 0
0.40257308 -0.12268136 0.81500006 0
0.40320143 -0.12268136 0.81500006 0
0.3945947 -0.12752351 0.81800002 0
0.39554074 -0.12752351 0.81800002 0
0.39648676 -0.12752351 0.81800002 0
0.39743274 -0.12752351 0.81800002 0
0.39837879 -0.12752351 0.81800002 0
0.39932483 -0.12752351 0.81800002 0
0.40058619 -0.12752351 0.81800002 0
0.4015322 -0.12752351 0.81800002 0
0.40247825 -0.12752351 0.81800002 0
0.40342426 -0.12752351 0.81800002 0
0.40437028 -0.12752351 0.81800002 0
0.40563166 -0.12752351 0.81800002 0
0.40657768 -0.12752351 0.81800002 0
0.40720835 -0.12752351 0.81800002 0
0.41067708 -0.12752351 0.81800002 0
0.41162312 -0.12752351 0.81800002 0
0.41256917 -0.12752351 0.81800002 0
0.3945947 -0.12658268 0.81800002 0
0.39554074 -0.12658268 0.81800002 0
0.39648676 -0.12658268 0.81800002 0
0.39743277 -0.12658268 0.81800002 0
0.39837879 -0.12658268 0.81800002 0
0.39932483 -0.12658268 0.81800002 0
0.40058619 -0.12658268 0.81800002 0
0.4015322 -0.12658268 0.81800002 0
0.40247825 -0.12658268 0.81800002 0
0.40342426 -0.12658268 0.81800002 0
0.40437028 -0.12658268 0.81800002 0
0.40563166 -0.12658268 0.81800002 0
0.40657768 -0.12658268 0.81800002 0
0.40720835 -0.12658268 0.81800002 1
0.41067711 -0.12658268 0.81800002 0
0.41162312 -0.12658268 0.81800002 0
0.41256917 -0.12658268 0.81800002 0
0.37867951 -0.12517501 0.81700003 0
0.37962437 -0.12517501 0.81700003 0
0.38025427 -0.12517501 0.81700003 0
0.3945947 -0.12595545 0.81800002 0
0.39554074 -0.12595545 0.81800002 0
0.39648676 -0.12595545 0.81800002 0
0.39743277 -0.12595545 0.81800002 0
0.39837879 -0.12595545 0.81800002 0
0.39932483 -0.12595545 0.81800002 0
0.40058619 -0.12595545 0.81800002 0
0.4015322 -0.12595545 0.81800002 0
0.40247825 -0.12595545 0.81800002 0
0.40342426 -0.12595545 0.81800002 0
0.40452042 -0.1256953 0.81766671 0
0.40557134 -0.1256953 0.81766671 0
0.40645626 -0.12543516 0.8173334 0
0.40750638 -0.12543516 0.8173334 0
0.40860027 -0.12517501 0.81700003 0
0.40954512 -0.12517501 0.81700003 0
0.41078222 -0.12574637 0.81800002 0
0.41162312 -0.12564184 0.81800002 0
0.41256917 -0.12564184 0.81800002 0
0.37867951 -0.12454856 0.81700003 0
0.37962437 -0.12454856 0.81700003 0
0.38025427 -0.12454856 0.81700003 0
0.4048208 -0.12454856 0.81700003 0
0.4054507 -0.12454856 0.81700003 0
0.40639555 -0.12454856 0.81700003 0
0.40765539 -0.12454856 0.81700003 0
0.40860027 -0.12454856 0.81700003 0
0.40954512 -0.12454856 0.81700003 0
0.37867951 -0.12360887 0.81700003 0
0.37962437 -0.12360887 0.81700003 0
0.38025427 -0.12360887 0.81700003 0
0.4048208 -0.12360887 0.81700003 0
0.4054507 -0.12360887 0.81700003 0
0.40639558 -0.12360887 0.81700003 0
0.40765539 -0.12360887 0.81700003 0
0.40860027 -0.12360887 0.81700003 0
0.40954512 -0.12360887 0.81700003 0
0.37080562 -0.12235595 0.81700003 0
0.37143552 -0.12235595 0.81700003 0
0.37238038 -0.12235596 0.81700003 0
0.4048208 -0.12266918 0.81700003 0
0.4054507 -0.12266918 0.81700003 0
0.40639555 -0.12266918 0.81700003 0
0.40765539 -0.12266918 0.81700003 0
0.40860027 -0.12266918 0.81700003 0
0.40954512 -0.12266918 0.81700003 0
0.37080562 -0.12141627 0.81700003 0
0.37143552 -0.12141627 0.81700003 0
0.37238038 -0.12141627 0.81700003 0
0.37080562 -0.12078981 0.81700003 0
0.37143552 -0.12078981 0.81700003 0
0.37238038 -0.12078981 0.81700003 0
0.36873674 -0.11748792 0.81800002 0
0.36968276 -0.11748792 0.81800002 0
0.36873674 -0.11654708 0.81800002 0
0.36968276 -0.11654708 0.81800002 0
0.36873674 -0.11560625 0.81800002 0
0.36968276 -0.11560625 0.81800002 0
0.39255127 -0.12767941 0.81900007 0
0.39349845 -0.12767941 0.81900007 0
0.39444563 -0.12767941 0.81900007 0
0.40865338 -0.12767941 0.81900007 0
0.40960056 -0.12767941 0.81900007 0
0.41023201 -0.12767941 0.81900007 0
0.41433644 -0.12767941 0.81900007 0
0.41559935 -0.12767941 0.81900007 0
0.39255127 -0.12642343 0.81900007 0
0.39349845 -0.12642343 0.81900007 0
0.39444563 -0.12642343 0.81900007 0
0.40865338 -0.12642343 0.81900007 0
0.40960056 -0.12642343 0.81900007 0
0.41023201 -0.12642343 0.81900007 0
0.41433644 -0.12642343 0.81900007 0
0.41559935 -0.12642343 0.81900007 0
0.37676495 -0.12548144 0.81900007 0
0.3773964 -0.12548144 0.81900007 0
0.37834358 -0.12548144 0.81900007 0
0.41433644 -0.12548144 0.81900007 0
0.41559935 -0.12548144 0.81900007 0
0.37676495 -0.12453945 0.81900007 0
0.3773964 -0.12453945 0.81900007 0
0.37834358 -0.12453946 0.81900007 0
0.37676495 -0.12359747 0.81900007 0
0.3773964 -0.12359747 0.81900007 0
0.37834358 -0.12359747 0.81900007 0
0.39635837 -0.13365692 0.82100004 0
0.39762437 -0.13365692 0.82100004 0
0.39857388 -0.13365692 0.82100004 0
0.39952338 -0.13365692 0.82100004 0
0.40047285 -0.13365692 0.82100004 0
0.40142235 -0.13365692 0.82100004 0
0.40237185 -0.13365692 0.82100004 0
0.40332133 -0.13365692 0.82100004 0
0.40458733 -0.13365692 0.82100004 0
0.40553683 -0.13365692 0.82100004 0
0.4064863 -0.13365692 0.82100004 0
0.4074358 -0.13365692 0.82100004 0
0.40838531 -0.13365692 0.82100004 0
0.40965128 -0.13365692 0.82100004 0
0.41060078 -0.13365692 0.82100004 0
0.41155028 -0.13365692 0.82100004 0
0.39635837 -0.13239789 0.82100004 0
0.39762437 -0.13239789 0.82100004 0
0.39857388 -0.13239789 0.82100004 0
0.39952338 -0.13239789 0.82100004 0
0.40047285 -0.13239789 0.82100004 0
0.40142235 -0.13239789 0.82100004 0
0.40237185 -0.13239789 0.82100004 0
0.40332133 -0.13239789 0.82100004 0
0.40458733 -0.13239789 0.82100004 0
0.40553683 -0.13239789 0.82100004 0
0.4064863 -0.13239789 0.82100004 0
0.4074358 -0.13239789 0.82100004 0
0.40838531 -0.13239789 0.82100004 0
0.40965128 -0.13239789 0.82100004 0
0.41060078 -0.13239789 0.82100004 0
0.41155028 -0.13239789 0.82100004 0
0.39350989 -0.13145359 0.82100004 0
0.3944594 -0.13145359 0.82100004 0
0.3954089 -0.13145359 0.82100004 0
0.39635837 -0.13145359 0.82100004 0
0.39762437 -0.13145359 0.82100004 0
0.39857388 -0.13145359 0.82100004 0
0.39952338 -0.13145359 0.82100004 0
0.40047285 -0.13145359 0.82100004 0
0.40142235 -0.13145359 0.82100004 0
0.40237185 -0.13145359 0.82100004 0
0.40332133 -0.13145359 0.82100004 0
0.40458733 -0.13145359 0.82100004 0
0.40553683 -0.13145359 0.82100004 0
0.4064863 -0.13145359 0.82100004 0
0.4074358 -0.13145359 0.82100004 0
0.40838531 -0.13145359 0.82100004 0
0.40965128 -0.13145359 0.82100004 0
0.41060078 -0.13145359 0.82100004 0
0.41155028 -0.13145359 0.82100004 0
0.41249976 -0.13145359 0.82100004 0
0.41344926 -0.13145359 0.82100004 0
0.41439876 -0.13145359 0.82100004 0
0.41534823 -0.13145359 0.82100004 0
0.41661423 -0.13145359 0.82100004 0
0.39350989 -0.13050932 0.82100004 0
0.3944594 -0.13050932 0.82100004 0
0.3954089 -0.13050932 0.82100004 0
0.39635837 -0.13050932 0.82100004 0
0.39762437 -0.13050932 0.82100004 0
0.39857388 -0.13050932 0.82100004 0
0.39952338 -0.13050932 0.82100004 0
0.40047285 -0.13050932 0.82100004 0
0.40142235 -0.13050932 0.82100004 0
0.40237185 -0.13050932 0.82100004 0
0.40332133 -0.13050932 0.82100004 0
0.40458733 -0.13050932 0.82100004 0
0.40553683 -0.13050932 0.82100004 0
0.4064863 -0.13050932 0.82100004 0
0.4074358 -0.13050932 0.82100004 0
0.40838531 -0.13050932 0.82100004 0
0.40965128 -0.13050932 0.82100004 0
0.41060078 -0.13050932 0.82100004 0
0.41155028 -0.13050932 0.82100004 0
0.41249976 -0.13050932 0.82100004 0
0.41344926 -0.13050932 0.82100004 0
0.41439876 -0.13050932 0.82100004 0
0.41534826 -0.13050932 0.82100004 0
0.41661423 -0.13050932 0.82100004 0
0.39350989 -0.12956502 0.82100004 0
0.3944594 -0.12956502 0.82100004 0
0.3954089 -0.12956502 0.82100004 0
0.39635837 -0.12956502 0.82100004 0
0.39762437 -0.12956502 0.82100004 0
0.39857388 -0.12956502 0.82100004 0
0.39952338 -0.12956502 0.82100004 0
0.40047285 -0.12956502 0.82100004 0
0.40142235 -0.12956502 0.82100004 0
0.40237185 -0.12956502 0.82100004 0
0.40332133 -0.12956502 0.82100004 0
0.40458733 -0.12956502 0.82100004 0
0.40553683 -0.12956502 0.82100004 0
0.4064863 -0.12956502 0.82100004 0
0.4074358 -0.12956502 0.82100004 0
0.40838531 -0.12956502 0.82100004 0
0.40965128 -0.12956502 0.82100004 0
0.41060078 -0.12956502 0.82100004 0
0.41155028 -0.12956502 0.82100004 0
0.41249976 -0.12956502 0.82100004 0
0.41344926 -0.12956502 0.82100004 0
0.41439876 -0.12956502 0.82100004 0
0.41534823 -0.12956502 0.82100004 0
0.41661423 -0.12956502 0.82100004 0
0.39097792 -0.12830597 0.82100004 0
0.39161092 -0.12830597 0.82100004 0
0.39256042 -0.12830597 0.82100004 0
0.39350989 -0.12893549 0.82100004 0
0.3944594 -0.12893549 0.82100004 0
0.3954089 -0.12893549 0.82100004 0
0.39635837 -0.12893549 0.82100004 0
0.39762437 -0.12893549 0.82100004 0
0.39857388 -0.12893549 0.82100004 0
0.39952338 -0.12893549 0.82100004 0
0.40047285 -0.12893549 0.82100004 0
0.40142235 -0.12893549 0.82100004 0
0.40237185 -0.12893549 0.82100004 0
0.40332133 -0.12893549 0.82100004 0
0.40458733 -0.12893549 0.82100004 0
0.40553683 -0.12893549 0.82100004 0
0.4064863 -0.12893549 0.82100004 0
0.4074358 -0.12893549 0.82100004 0
0.40838531 -0.12893549 0.82100004 0
0.40965128 -0.12893549 0.82100004 0
0.41060078 -0.12893549 0.82100004 0
0.41155028 -0.12893549 0.82100004 0
0.41249976 -0.12893549 0.82100004 0
0.41344926 -0.12893549 0.82100004 0
0.41439876 -0.12893549 0.82100004 0
0.41534823 -0.12893549 0.82100004 0
0.41661423 -0.12893549 0.82100004 0
0.39097792 -0.12736169 0.82100004 0
0.39161092 -0.12736169 0.82100004 0
0.39256042 -0.12736167 0.82100004 0
0.39097792 -0.12641738 0.82100004 0
0.39161092 -0.12641738 0.82100004 0
0.39256042 -0.12641738 0.82100004 0
0.37040558 -0.12043691 0.82100004 0
0.37167156 -0.1204369 0.82100004 0
0.37040558 -0.11949261 0.82100004 0
0.37167156 -0.11949261 0.82100004 0
0.37040558 -0.11886309 0.82100004 0
0.37167156 -0.11886309 0.82100004 0
0.40462109 -0.14155522 0.82300001 0
0.40557289 -0.14155522 0.82300001 0
0.40652472 -0.14155522 0.82300001 0
0.40747651 -0.14155522 0.82300001 0
0.40842834 -0.14155522 0.82300001 0
0.40938014 -0.14155522 0.82300001 0
0.41033193 -0.14155522 0.82300001 0
0.40462109 -0.14060864 0.82300001 0
0.40557289 -0.14060864 0.82300001 0
0.40652472 -0.14060864 0.82300001 0
0.40747651 -0.14060864 0.82300001 0
0.40842834 -0.14060864 0.82300001 0
0.40938014 -0.14060864 0.82300001 0
0.41033193 -0.14060864 0.82300001 0
0.39954481 -0.13934653 0.82300001 0
0.4004966 -0.13934653 0.82300001 0
0.40144843 -0.13934653 0.82300001 0
0.40240023 -0.13934653 0.82300001 0
0.4036693 -0.13934653 0.82300001 0
0.40462109 -0.13966206 0.82300001 0
0.40557289 -0.13966206 0.82300001 0
