# .PCD v0.7 - Point Cloud Data file format
VERSION 0.7
FIELDS x y z rgb
SIZE 4 4 4 4
TYPE F F F U
COUNT 1 1 1 1
WIDTH 1084
HEIGHT 1
VIEWPOINT 0 0 0 1 0 0 0
POINTS 1084
DATA ascii
0.046413139 -0.047405284 0.51600003 13578540
0.047407735 -0.047405284 0.51600003 13709865
0.048004497 -0.047405288 0.51600003 13709865
0.043429352 -0.046416141 0.51600003 13316401
0.044423949 -0.046416137 0.51600003 13643569
0.045418546 -0.046416141 0.51600003 13839920
0.046413139 -0.046416137 0.51600003 13513003
0.047407739 -0.046416137 0.51600003 13644071
0.048004497 -0.046416141 0.51600003 13775657
0.043429349 -0.045426995 0.51600003 13250094
0.044423945 -0.045426995 0.51600003 13643054
0.045418542 -0.045426995 0.51600003 13774124
0.046413142 -0.045426995 0.51600003 13316389
0.047407743 -0.045426995 0.51600003 13578277
0.048004497 -0.045426995 0.51600003 13709865
0.043429349 -0.044437852 0.51600003 13052715
0.044423949 -0.044437852 0.51600003 13445676
0.045418546 -0.044437852 0.51600003 13511725
0.046413139 -0.044437852 0.51600003 13315628
0.047407739 -0.044437852 0.51600003 13446691
0.048004497 -0.044437852 0.51600003 13578275
0.043429349 -0.043646537 0.51600003 13052458
0.044480782 -0.043561753 0.51600003 13249066
0.045418542 -0.043448713 0.51600003 13183529
0.046413139 -0.043448709 0.51600003 13184036
0.047407743 -0.043448713 0.51600003 13250085
0.048004497 -0.043448705 0.51600003 13381414
0.044821784 -0.042459562 0.51600003 13117481
0.045418546 -0.042459562 0.51600003 13052201
0.046413142 -0.042459562 0.51600003 13052455
0.047407739 -0.042459562 0.51600003 12986919
0.048004497 -0.042459562 0.51600003 13118505
0.044821784 -0.041668247 0.51600003 13051945
0.045418546 -0.041668247 0.51600003 13052199
0.046413139 -0.041668247 0.51600003 12986915
0.047407739 -0.041668247 0.51600003 12986915
0.048004497 -0.041668247 0.51600003 12987171
0.04490865 -0.053047102 0.51700002 13906730
0.045506567 -0.053047102 0.51700002 13775658
0.046503086 -0.053047102 0.51700002 13775658
0.047499612 -0.053047102 0.51700002 13906730
0.048097529 -0.053047102 0.51700002 13840937
0.04490865 -0.052452464 0.51700002 13709865
0.045506563 -0.052452464 0.51700002 13710378
0.046503093 -0.052452464 0.51700002 13710378
0.047499612 -0.052452464 0.51700002 13906730
0.048097529 -0.052452464 0.51700002 13906730
0.043513514 -0.051263191 0.51700002 13578028
0.044566985 -0.051348139 0.51700002 13578798
0.045506567 -0.051461399 0.51700002 13579824
0.046503093 -0.051461402 0.51700002 13841965
0.047499612 -0.051461402 0.51700002 13972523
0.048439186 -0.051348131 0.51700002 13907499
0.049492665 -0.051263191 0.51700002 13841707
0.050090577 -0.051263191 0.51700002 13841708
0.043513514 -0.050470345 0.51700002 13578028
0.04451004 -0.050470341 0.51700002 13644592
0.045506567 -0.050470345 0.51700002 13842484
0.046503093 -0.050470341 0.51700002 14104625
0.047499612 -0.050470341 0.51700002 14038574
0.048496138 -0.050470341 0.51700002 13907501
0.049492665 -0.050470345 0.51700002 13972781
0.050090577 -0.050470341 0.51700002 13972527
0.041719776 -0.04947928 0.51700002 13447204
0.042516991 -0.049479276 0.51700002 13643817
0.043513518 -0.049479276 0.51700002 13578540
0.044310734 -0.04947928 0.51700002 13578543
0.048695445 -0.04947928 0.51700002 13906989
0.049492661 -0.04947928 0.51700002 13972525
0.050489187 -0.04947928 0.51700002 13906732
0.051485706 -0.04947928 0.51700002 13709353
0.041719772 -0.048488218 0.51700002 13251107
0.042516991 -0.048488218 0.51700002 13316650
0.043513514 -0.048488222 0.51700002 13447728
0.044310734 -0.048488222 0.51700002 13644340
0.048695445 -0.048488218 0.51700002 13906732
0.049492665 -0.048488218 0.51700002 14038318
0.050489187 -0.048488218 0.51700002 13775146
0.051485706 -0.048488222 0.51700002 13577767
0.041719776 -0.047497157 0.51700002 13449008
0.042516991 -0.047497153 0.51700002 13382448
0.043513518 -0.047497157 0.51700002 13382195
0.044310734 -0.047497157 0.51700002 13644083
0.048695445 -0.047497157 0.51700002 13841709
0.049492661 -0.047497157 0.51700002 13776429
0.050489187 -0.047497157 0.51700002 13512743
0.051485706 -0.047497157 0.51700002 13315107
0.041719772 -0.046506096 0.51700002 13382961
0.042516991 -0.046506096 0.51700002 13251119
0.048695445 -0.046506099 0.51700002 13711154
0.049492661 -0.046506099 0.51700002 13711919
0.050489187 -0.046506096 0.51700002 13645356
0.05148571 -0.046506096 0.51700002 13381157
0.041719776 -0.045515034 0.51700002 13119789
0.042516991 -0.045515034 0.51700002 13119276
0.048695445 -0.045515031 0.51700002 13711417
0.049492668 -0.045515034 0.51700002 13516597
0.050489187 -0.045515034 0.51700002 13581106
0.051485706 -0.045515034 0.51700002 13382443
0.041719772 -0.044523973 0.51700002 12725034
0.042516991 -0.044523973 0.51700002 12856106
0.048695441 -0.044523977 0.51700002 13514285
0.049492665 -0.044523973 0.51700002 13318963
0.050489187 -0.044523973 0.51700002 13384245
0.05148571 -0.044523977 0.51700002 13186352
0.041719776 -0.043532912 0.51700002 12724522
0.042516991 -0.043532912 0.51700002 12855338
0.043513514 -0.043136489 0.51700002 12986665
0.044310734 -0.043136489 0.51700002 13117738
0.048695445 -0.043532912 0.51700002 13382700
0.049492661 -0.043532912 0.51700002 13317937
0.050489187 -0.043532912 0.51700002 13318453
0.051485706 -0.043532912 0.51700002 13055537
0.041719772 -0.04254185 0.51700002 12658729
0.042516991 -0.04254185 0.51700002 12789544
0.043513514 -0.04254185 0.51700002 12855079
0.044310734 -0.04254185 0.51700002 13051944
0.048695445 -0.04254185 0.51700002 13185071
0.049492665 -0.04254185 0.51700002 13185587
0.050489187 -0.04254185 0.51700002 13055544
0.05148571 -0.04254185 0.51700002 12858934
0.041719772 -0.041749001 0.51700002 12527143
0.042516991 -0.041749001 0.51700002 12592679
0.043513518 -0.041550789 0.51700002 12723750
0.044396151 -0.041494157 0.51700002 12986408
0.045506567 -0.041154366 0.51700002 13117991
0.046503093 -0.041154366 0.51700002 12987168
0.047499612 -0.041154366 0.51700002 12987167
0.048610024 -0.041494157 0.51700002 12921892
0.049492668 -0.041550789 0.51700002 12988201
0.050489187 -0.041550789 0.51700002 12989231
0.051485706 -0.041550789 0.51700002 12727599
0.043513514 -0.040559728 0.51700002 12527142
0.044510037 -0.040559728 0.51700002 12789799
0.045506567 -0.040559728 0.51700002 12921126
0.046503093 -0.040559728 0.51700002 12921375
0.047499612 -0.040559728 0.51700002 12921121
0.048496138 -0.040559728 0.51700002 12790053
0.049492661 -0.040559728 0.51700002 12725034
0.050489187 -0.040559728 0.51700002 12726571
0.05148571 -0.040559728 0.51700002 12596528
0.043513514 -0.039965093 0.51700002 12396070
0.044669487 -0.039727237 0.51700002 12527141
0.045506567 -0.039568666 0.51700002 12592932
0.046503089 -0.03956867 0.51700002 12593444
0.047499612 -0.039568666 0.51700002 12527652
0.048336696 -0.039727237 0.51700002 12527398
0.049492665 -0.039965093 0.51700002 12593450
0.050489187 -0.039965093 0.51700002 12594739
0.05148571 -0.039965093 0.51700002 12465206
0.04490865 -0.038577605 0.51700002 12330277
0.045506567 -0.038577605 0.51700002 12264997
0.046503093 -0.038577605 0.51700002 12199463
0.047499612 -0.038577605 0.51700002 12134182
0.048097529 -0.038577605 0.51700002 12068388
0.043597683 -0.053149704 0.51800001 13905961
0.044396445 -0.053149704 0.51800001 13906217
0.048789632 -0.053149704 0.51800001 13644587
0.049588393 -0.053149704 0.51800001 13448492
0.050187465 -0.053149704 0.51800001 13645617
0.043597683 -0.052553918 0.51800001 13905961
0.044396445 -0.052553918 0.51800001 13774888
0.048789632 -0.052553918 0.51800001 13579304
0.049588393 -0.052553918 0.51800001 13317416
0.050187465 -0.052553918 0.51800001 13514793
0.041800469 -0.051362343 0.51800001 13512234
0.042599231 -0.051362347 0.51800007 13643306
0.043597683 -0.051958133 0.51800001 13578027
0.044396445 -0.051958133 0.51800001 13512748
0.048789632 -0.051958133 0.51800001 13710890
0.049588393 -0.051958133 0.51800001 13841962
0.05066672 -0.051481497 0.51800001 13841707
0.051585294 -0.051362343 0.51800001 13841194
0.041800469 -0.050567962 0.51800001 13512233
0.042599231 -0.050567966 0.51800007 13643562
0.050786532 -0.050567962 0.51800001 13906734
0.051585294 -0.050567962 0.51800001 13775147
0.052583743 -0.048383411 0.51800001 13380644
0.053382508 -0.048383411 0.51800001 13249825
0.05258375 -0.047589023 0.51800007 13249826
0.053382505 -0.047589023 0.51800001 13249825
0.040402636 -0.046397451 0.51800007 13382962
0.041201398 -0.046397451 0.51800007 13448754
0.05258375 -0.046397455 0.51800007 13249828
0.053382505 -0.046397451 0.51800001 13249828
0.040402636 -0.045404475 0.51800001 13054511
0.041201398 -0.045404475 0.51800001 13119789
0.05258375 -0.045404475 0.51800007 13118761
0.053382508 -0.045404475 0.51800001 13183784
0.040402636 -0.044411495 0.51800007 12725292
0.041201398 -0.044411495 0.51800007 12790571
0.05258375 -0.044411495 0.51800007 12922411
0.053382505 -0.044411495 0.51800001 12987176
0.040402636 -0.043617114 0.51800001 12724779
0.041201398 -0.043617114 0.51800001 12790315
0.05258375 -0.043418515 0.51800007 12857390
0.053382508 -0.043418519 0.51800001 12922410
0.05258375 -0.042425539 0.51800007 12661809
0.053382505 -0.042425539 0.51800001 12596269
0.041800469 -0.041233964 0.51800001 12527143
0.042599231 -0.041233964 0.51800001 12527142
0.052583743 -0.041631158 0.51800001 12400433
0.053382508 -0.041631158 0.51800001 12204084
0.041800469 -0.040439583 0.51800001 12330536
0.042599231 -0.040439583 0.51800007 12396072
0.043597683 -0.039446607 0.51800001 12264741
0.044396445 -0.039446604 0.51800001 12395812
0.048789632 -0.039446604 0.51800001 12330791
0.049588393 -0.039446604 0.51800001 12396841
0.050187465 -0.039446607 0.51800001 12266287
0.043597683 -0.038652223 0.51800001 12133926
0.044396445 -0.038652223 0.51800001 12264741
0.048789632 -0.038652223 0.51800001 12134180
0.049588393 -0.038652223 0.51800001 12003624
0.050187465 -0.038652223 0.51800001 12004650
0.043681845 -0.055242099 0.51900005 13841454
0.044482149 -0.055242099 0.51900005 14104625
0.045482527 -0.055242103 0.51900005 14104368
0.046482906 -0.055242099 0.51900005 14103339
0.047483291 -0.055242103 0.51900005 13971753
0.048483666 -0.055242099 0.51900005 13905959
0.043681845 -0.054446187 0.51900005 13906475
0.044482145 -0.054446187 0.51900005 13906731
0.045482527 -0.054446187 0.51900005 13906987
0.046482906 -0.054446191 0.51900005 13906730
0.047483288 -0.054446183 0.51900005 13906473
0.04848367 -0.054446179 0.51900005 13775145
0.041881163 -0.05325231 0.51900005 13708331
0.042481393 -0.05325231 0.51900005 13839915
0.043481767 -0.053517614 0.51900005 13905961
0.044482149 -0.053650267 0.51900005 13906217
0.045482527 -0.053650271 0.51900005 13775658
0.046482906 -0.053650267 0.51900005 13710378
0.047483284 -0.053650271 0.51900005 13840937
0.048483666 -0.053650267 0.51900005 13709866
0.0506845 -0.05325231 0.51900005 13777203
0.051484805 -0.05325231 0.51900005 14040888
0.041881163 -0.052456394 0.51900005 13642793
0.042481393 -0.052456394 0.51900005 13839913
0.043081623 -0.052456394 0.51900005 13774634
0.0506845 -0.052456394 0.51900005 13842988
0.051484805 -0.05245639 0.51900005 13974573
0.040480629 -0.051461499 0.51900005 13183269
0.041280933 -0.051461499 0.51900005 13249062
0.052485183 -0.051461499 0.51900005 13841193
0.053285487 -0.051461499 0.51900005 13775143
0.040480629 -0.050466601 0.51900005 13249061
0.041280936 -0.050466601 0.51900005 13249317
0.052485183 -0.050466608 0.51900005 13709352
0.053285491 -0.050466608 0.51900005 13578021
0.040480629 -0.049471706 0.51900005 13249824
0.041280933 -0.049471706 0.51900005 13447202
0.052485183 -0.049471706 0.51900005 13578023
0.053285483 -0.049471706 0.51900005 13381156
0.040480629 -0.048476811 0.51900005 13316904
0.041280936 -0.048476811 0.51900005 13448488
0.052485183 -0.048874769 0.51900005 13512230
0.053285487 -0.048874769 0.51900005 13315363
0.040480629 -0.047481917 0.51900005 13383216
0.041280933 -0.047481917 0.51900005 13514545
0.053885713 -0.046487022 0.51900005 13249828
0.054485943 -0.046487022 0.51900005 13184035
0.055086169 -0.046487022 0.51900005 13118242
0.053885713 -0.045492128 0.51900005 13183784
0.054485943 -0.045492128 0.51900005 13117991
0.055086169 -0.045492128 0.51900005 13052198
0.053885713 -0.044497233 0.51900005 12987176
0.054485943 -0.044497233 0.51900005 12921383
0.055086169 -0.044497233 0.51900005 12790056
0.040480629 -0.043303359 0.51900005 12658986
0.041280933 -0.043303359 0.51900005 12724522
0.053885713 -0.043502338 0.51900005 12922410
0.054485943 -0.043502338 0.51900005 12791080
0.055086169 -0.043502338 0.51900005 12528166
0.040480632 -0.04250744 0.51900005 12593193
0.041280936 -0.042507444 0.51900005 12658729
0.053885713 -0.04250744 0.51900005 12596269
0.054485943 -0.04250744 0.51900005 12398890
0.055086169 -0.04250744 0.51900005 12332586
0.040480629 -0.041512545 0.51900005 12461607
0.041280933 -0.041512545 0.51900005 12658729
0.052485183 -0.041313566 0.51900005 12531505
0.053485561 -0.04144622 0.51900005 12269877
0.054485939 -0.041711524 0.51900005 12269363
0.055086169 -0.041711524 0.51900005 12268593
0.040480629 -0.040517654 0.51900005 12199203
0.041280936 -0.040517654 0.51900005 12330535
0.052485183 -0.040517654 0.51900005 12335157
0.053285483 -0.040517651 0.51900005 12139321
0.041881163 -0.039522756 0.51900005 12002856
0.042481393 -0.039522756 0.51900005 12199464
0.043081619 -0.039522756 0.51900005 12264998
0.0506845 -0.039522756 0.51900005 12397873
0.051484797 -0.039522756 0.51900005 12202548
0.041881163 -0.03872684 0.51900005 11740712
0.042481393 -0.03872684 0.51900005 12002600
0.043381732 -0.038428374 0.51900005 12002854
0.044482149 -0.038129903 0.51900005 12133669
0.045482527 -0.038129903 0.51900005 12133669
0.046482906 -0.038129903 0.51900005 12068135
0.047483284 -0.038129903 0.51900005 11937318
0.048483666 -0.038129903 0.51900005 12003106
0.0506845 -0.03872684 0.51900005 12070443
0.051484805 -0.03872684 0.51900005 11874862
0.043681845 -0.037532967 0.51900005 11674664
0.044482149 -0.037532967 0.51900005 11805993
0.045482527 -0.03753297 0.51900005 11805993
0.046482906 -0.037532967 0.51900005 11675177
0.047483291 -0.037532967 0.51900005 11675429
0.048483662 -0.037532967 0.51900005 11741215
0.043681845 -0.03693603 0.51900005 11478570
0.044482149 -0.03693603 0.51900005 11544363
0.045482527 -0.03693603 0.51900005 11544363
0.046482906 -0.03693603 0.51900005 11478827
0.047483291 -0.03693603 0.51900005 11479081
0.048483666 -0.03693603 0.51900005 11544871
0.04196186 -0.055348538 0.52000004 13512236
0.042563245 -0.055348538 0.52000004 13643820
0.043164626 -0.055348538 0.52000004 13775406
0.049579393 -0.055348534 0.52000004 13905958
0.050581697 -0.055348538 0.52000004 13775140
0.051584005 -0.055348534 0.52000004 13644838
0.04196186 -0.054551084 0.52000004 13577772
0.042563245 -0.054551091 0.52000004 13774636
0.043164626 -0.054551084 0.52000004 13906220
0.049579389 -0.054551091 0.52000004 13709609
0.050581694 -0.054551091 0.52000004 13710124
0.051584005 -0.054551091 0.52000004 13645614
0.040558629 -0.053354915 0.52000004 13313829
0.041560937 -0.053487822 0.52000004 13510952
0.042563245 -0.053753641 0.52000004 13905708
0.043164626 -0.053753641 0.52000004 13971755
0.049579393 -0.053753641 0.52000004 13513772
0.050581697 -0.053753641 0.52000004 13645617
0.051584005 -0.053753641 0.52000004 14106424
0.05258631 -0.053354915 0.52000004 14040886
0.053388156 -0.053354915 0.52000004 13646384
0.040558629 -0.052557465 0.52000004 13248548
0.041360475 -0.052557465 0.52000004 13314084
0.052586306 -0.052557465 0.52000004 14105390
0.05338816 -0.052557465 0.52000004 13907755
0.038754478 -0.050165117 0.52000004 13052203
0.039556321 -0.050165117 0.52000004 13117480
0.053989541 -0.050165117 0.52000004 13512484
0.054590926 -0.050165117 0.52000004 13380898
0.05519231 -0.050165117 0.52000004 13249314
0.038754478 -0.049567029 0.52000004 13118243
0.039556321 -0.049567033 0.52000004 13118241
0.053989541 -0.049567029 0.52000004 13381411
0.054590926 -0.049567029 0.52000004 13249825
0.05519231 -0.049567029 0.52000004 13183521
0.038754478 -0.048570219 0.52000004 12922151
0.039556324 -0.048570219 0.52000004 13053735
0.053989541 -0.048570219 0.52000004 13249825
0.054590926 -0.048570219 0.52000004 13184032
0.05519231 -0.048570219 0.52000004 13117728
0.038754478 -0.047573406 0.52000004 13054000
0.039556321 -0.047573406 0.52000004 13185583
0.053989541 -0.047573406 0.52000004 13249826
0.054590926 -0.047573406 0.52000004 13184033
0.05519231 -0.047573406 0.52000004 13117985
0.038754478 -0.046576593 0.52000004 12923184
0.039556324 -0.046576593 0.52000004 13054513
0.038754478 -0.045579784 0.52000004 12661302
0.039556321 -0.04557978 0.52000004 12792370
0.038754478 -0.044582974 0.52000004 12595508
0.039556324 -0.044582967 0.52000004 12594479
0.038754478 -0.043586157 0.52000004 12266798
0.039556321 -0.043586154 0.52000004 12462636
0.038754478 -0.042589348 0.52000004 12135212
0.039556324 -0.04258934 0.52000004 12396842
0.038754478 -0.041791897 0.52000004 12003112
0.039556324 -0.041791897 0.52000004 12265000
0.053989541 -0.041393172 0.52000004 12401463
0.054590926 -0.041393172 0.52000004 12400949
0.05519231 -0.041393172 0.52000004 12400179
0.053989541 -0.040595721 0.52000004 12008506
0.054590926 -0.040595721 0.52000004 11943226
0.05519231 -0.040595721 0.52000004 12007992
0.040558629 -0.039399549 0.52000004 11805986
0.041360475 -0.039399549 0.52000004 11871525
0.052586306 -0.039399549 0.52000004 11941945
0.05338816 -0.039399546 0.52000004 11746621
0.040558629 -0.038602099 0.52000004 11413284
0.041560937 -0.038469192 0.52000004 11609639
0.042563245 -0.038203374 0.52000004 11871272
0.043164626 -0.038203374 0.52000004 11937319
0.049579393 -0.038203374 0.52000004 11938086
0.050581697 -0.038203374 0.52000004 11873573
0.051584005 -0.038203374 0.52000004 11809322
0.05258631 -0.038602099 0.52000004 11614516
0.053388156 -0.038602099 0.52000004 11484989
0.04196186 -0.037405923 0.52000004 11347496
0.042563245 -0.037405923 0.52000004 11543848
0.043164626 -0.037405923 0.52000004 11543848
0.049579393 -0.037405923 0.52000004 11479589
0.050581697 -0.037405923 0.52000004 11742000
0.051584005 -0.037405923 0.52000004 11546929
0.043649331 -0.057052948 0.52100003 13710640
0.044452716 -0.057052951 0.52100003 13776945
0.045456953 -0.057052948 0.52100003 13710380
0.046461191 -0.057052951 0.52100003 13905960
0.047465421 -0.057052948 0.52100003 14036262
0.048469659 -0.057052951 0.52100003 14036262
0.049473889 -0.057052948 0.52100003 14036262
0.050277278 -0.057052948 0.52100003 13904935
0.043649331 -0.056453712 0.52100003 13776175
0.044452716 -0.056453716 0.52099997 13908274
0.045456953 -0.056453712 0.52100003 13907760
0.046461191 -0.056453716 0.52099997 14037546
0.047465421 -0.056453712 0.52100003 14102055
0.048469651 -0.056453716 0.52099997 14036262
0.049473889 -0.056453712 0.52100003 14036261
0.050277278 -0.056453712 0.52100003 13970726
0.040636629 -0.055255238 0.52100003 13249064
0.041440018 -0.055255238 0.52100003 13183271
0.043649331 -0.055854473 0.52100003 13841966
0.044452716 -0.055854473 0.52100003 13974066
0.045456953 -0.055854473 0.52100003 14039346
0.046461184 -0.055854473 0.52100003 14169133
0.047465421 -0.055854473 0.52100003 14102055
0.048469651 -0.055854473 0.52100003 14102054
0.049473889 -0.055854473 0.52100003 14167846
0.050277278 -0.055854473 0.52100003 14102309
0.052687436 -0.055255242 0.52100003 13580333
0.053490825 -0.055255242 0.52100003 13383985
0.040636625 -0.054456249 0.52100003 13314343
0.041440018 -0.054456253 0.52100003 13314343
0.05268744 -0.054456249 0.52100003 13777972
0.053490825 -0.054456249 0.52100003 13646642
0.038829006 -0.053257778 0.52100003 12986402
0.03943155 -0.053257778 0.52100003 13051939
0.040335357 -0.0535574 0.52100003 13314085
0.041440018 -0.053857017 0.52100003 13445159
0.052687436 -0.053857017 0.52100003 14040886
0.053490825 -0.053857017 0.52100003 13712177
0.054495055 -0.053257778 0.52099997 13447975
0.055298448 -0.053257778 0.52100003 13447205
0.038829006 -0.052458797 0.52100003 12986403
0.03943155 -0.052458797 0.52100003 13117476
0.040034086 -0.052458797 0.52100003 13183012
0.054495055 -0.052458797 0.52099997 13578277
0.055298448 -0.052458797 0.52100003 13512227
0.038829006 -0.051460069 0.52100003 12986652
0.03943155 -0.051460069 0.52099997 13117726
0.040034086 -0.051460069 0.52100003 13183267
0.054495063 -0.051460065 0.52099997 13643556
0.055298448 -0.051460069 0.52100003 13446177
0.038829006 -0.050661083 0.52100003 13052203
0.03943155 -0.050661083 0.52100003 13117481
0.040034086 -0.050661083 0.52100003 13183269
0.054495066 -0.050661083 0.52100003 13380898
0.055298448 -0.050661083 0.52100003 13249314
0.037423074 -0.048463874 0.52100003 12659239
0.038226463 -0.048463877 0.52100003 12856360
0.055700142 -0.048463877 0.52100003 13117728
0.056503534 -0.048463877 0.52099997 12986656
0.037423078 -0.047465146 0.52099997 12659756
0.038226463 -0.047465146 0.52099997 12922414
0.055700142 -0.047465146 0.52100003 13117984
0.056503534 -0.047465142 0.52099997 12921120
0.037423074 -0.046466418 0.52100003 12594735
0.038226463 -0.046466418 0.52100003 12791856
0.055700142 -0.046466418 0.52100003 13118243
0.056503531 -0.046466414 0.52099997 12855842
0.037423078 -0.04546769 0.52099997 12398901
0.038226463 -0.045467686 0.52099997 12595765
0.055700142 -0.04546769 0.52100003 12986663
0.056503527 -0.04546769 0.52099997 12724264
0.037423074 -0.044468962 0.52100003 12399413
0.038226463 -0.044468962 0.52100003 12596021
0.055700142 -0.044468962 0.52100003 12724519
0.056503531 -0.044468958 0.52099997 12462117
0.037423074 -0.043869723 0.52100003 12399412
0.038226463 -0.043869723 0.52100003 12530227
0.055700142 -0.043470234 0.52100003 12462373
0.056503527 -0.04347023 0.52099997 12134177
0.055700142 -0.042471502 0.52100003 12070185
0.056503534 -0.042471498 0.52099997 11676198
0.038829006 -0.041273028 0.52100003 11805990
0.03943155 -0.041273028 0.52100003 11937061
0.040034086 -0.041273028 0.52100003 12199204
0.055700142 -0.041872263 0.52100003 12202800
0.056503531 -0.041872263 0.52100003 11742252
0.038829006 -0.040474042 0.52100003 11740454
0.03943155 -0.040474042 0.52100003 11871524
0.040034086 -0.040474042 0.52100003 12067874
0.038829006 -0.039475314 0.52100003 11478309
0.03943155 -0.039475314 0.52099997 11609636
0.040034086 -0.039475314 0.52100003 11740450
0.054495059 -0.039475314 0.52099997 11485760
0.055298448 -0.039475314 0.52100003 11552067
0.038829006 -0.038676333 0.52100003 11216677
0.03943155 -0.038676333 0.52100003 11413284
0.040034086 -0.038676333 0.52100003 11413284
0.052687436 -0.03827684 0.52100003 11614516
0.053490825 -0.03827684 0.52100003 11484988
0.054495063 -0.038676333 0.52100003 11422023
0.055298448 -0.038676333 0.52100003 11489872
0.052687436 -0.037477855 0.52099997 11483191
0.053490829 -0.037477855 0.52099997 11353924
0.04252572 -0.057162452 0.52200001 13381417
0.043330647 -0.057162456 0.52200001 13579054
0.050977476 -0.057162456 0.52200001 13839401
0.051581174 -0.057162456 0.52200001 13577513
0.052184872 -0.057162456 0.52200001 13643306
0.04252572 -0.05656207 0.52200001 13381417
0.043330647 -0.056562066 0.52200001 13644589
0.050977476 -0.056562066 0.52200001 13905446
0.051581174 -0.056562066 0.52200001 13643558
0.052184872 -0.056562066 0.52200001 13643816
0.04252572 -0.05596168 0.52200001 13512745
0.043330647 -0.05596168 0.52200001 13644587
0.050977476 -0.05596168 0.52200001 14037028
0.051581174 -0.05596168 0.52200001 13775140
0.052184872 -0.05596168 0.52200001 13709863
0.037494905 -0.051558837 0.52200001 12461348
0.038299836 -0.051558837 0.52200001 12855327
0.037494905 -0.050558191 0.52200001 12657702
0.038299836 -0.050558191 0.52200001 12920617
0.055807054 -0.050358061 0.52200001 13183521
0.056410752 -0.050358061 0.52200001 13052448
0.057215679 -0.050358061 0.52200001 13052450
0.037494905 -0.049557541 0.52200001 12724000
0.038299836 -0.049557541 0.52200001 12921378
0.055807054 -0.049557548 0.52200001 13117728
0.056410749 -0.049557548 0.52200001 13052448
0.057215676 -0.049557548 0.52200001 12986657
0.057416912 -0.048757028 0.52200001 12986657
0.037494905 -0.043353539 0.52200001 12137009
0.038299836 -0.043353539 0.52200001 12201775
0.037494905 -0.042553023 0.52200001 11939630
0.038299836 -0.042553023 0.52200001 12004396
0.037494905 -0.04155238 0.52200001 11675948
0.038299836 -0.04155238 0.52200001 11675175
0.055807054 -0.04135225 0.52200001 12138035
0.056410752 -0.04135225 0.52200001 11743535
0.057255924 -0.041472327 0.52200001 11414315
0.037494905 -0.04055173 0.52200001 11347755
0.038299836 -0.04055173 0.52200001 11543847
0.055807054 -0.04055173 0.52200001 11942714
0.056410752 -0.04055173 0.52200001 11548468
0.057215679 -0.04055173 0.52200001 11219762
0.040714625 -0.03835031 0.52200001 11413284
0.041519556 -0.03835031 0.52200001 11544102
0.040714625 -0.037549794 0.52200001 10954278
0.041519556 -0.037549794 0.52200001 11216424
0.04453804 -0.036549147 0.52200001 11347756
0.045544203 -0.036549147 0.52200001 11347757
0.046550363 -0.036549147 0.52200001 11348012
0.047556527 -0.036549147 0.52200001 11282474
0.048562687 -0.036549147 0.52200001 11348267
0.049568851 -0.036549147 0.52200001 11151915
0.050373781 -0.036549147 0.52200001 11217455
0.04453804 -0.035748631 0.52200001 11216943
0.045544203 -0.035748631 0.52200001 11216943
0.046550363 -0.035748631 0.52200001 11085868
0.047556527 -0.035748631 0.52200001 11086123
0.048562687 -0.035748631 0.52200001 11085871
0.049568851 -0.035748631 0.52200001 10955311
0.050373778 -0.035748631 0.52200001 10955057
0.04583307 -0.058475036 0.523 13578279
0.04643793 -0.058475036 0.523 13578022
0.047446012 -0.058475036 0.523 13643301
0.048454106 -0.058475036 0.523 13643301
0.049058955 -0.058475036 0.523 13577509
0.040792622 -0.057271961 0.523 13052449
0.041599095 -0.057271961 0.523 13052449
0.04583307 -0.057672985 0.523 13644072
0.046437927 -0.057672985 0.523 13709351
0.047446012 -0.057672989 0.523 13774374
0.048454106 -0.057672985 0.523 13774374
0.049058955 -0.057672985 0.523 13708581
0.052688077 -0.057271961 0.523 13709099
0.053494554 -0.057271961 0.523 13512745
0.040792622 -0.056469914 0.523 13183523
0.041599095 -0.056469914 0.523 13117986
0.052688077 -0.056469914 0.523 13643816
0.05349455 -0.05646991 0.523 13578539
0.038978063 -0.055266835 0.523 12986405
0.039582916 -0.055266835 0.523 13117478
0.040187769 -0.055266835 0.523 13183271
0.054502636 -0.055266835 0.523 13383727
0.055309109 -0.055266835 0.523 13251368
0.038978063 -0.054464787 0.523 12986655
0.039582916 -0.054464787 0.523 13051937
0.040187769 -0.054464784 0.523 13248550
0.054502636 -0.054464787 0.523 13580847
0.055309113 -0.054464784 0.523 13382440
0.037566736 -0.053462222 0.523 12330529
0.03837321 -0.053462222 0.523 12789793
0.037566736 -0.052660167 0.523 12396070
0.03837321 -0.052660167 0.523 12789541
0.055913962 -0.052058633 0.523 13446177
0.056518815 -0.052058633 0.523 13183521
0.057325289 -0.052058633 0.523 12921378
0.055913962 -0.051457092 0.523 13380384
0.056518815 -0.051457092 0.523 13183521
0.057325289 -0.051457092 0.523 12921378
0.055913962 -0.050855558 0.523 13183521
0.056518815 -0.050855558 0.523 13052448
0.057325289 -0.050855558 0.523 13052450
0.035752177 -0.047246329 0.523 12004396
0.036558647 -0.047246326 0.523 12462891
0.035752177 -0.046444282 0.523 11874098
0.036558647 -0.046444282 0.523 12267056
0.035752177 -0.045441717 0.523 11809335
0.036558647 -0.045441717 0.523 12268086
0.035752177 -0.044439152 0.523 11744824
0.036558643 -0.044439152 0.523 12203062
0.035752177 -0.043637104 0.523 11614778
0.036558647 -0.043637108 0.523 12006966
0.037566736 -0.040027879 0.523 11150891
0.03837321 -0.040027879 0.523 11543848
0.055913962 -0.040027879 0.523 12009536
0.056518815 -0.040027879 0.523 11483704
0.057325289 -0.040027879 0.523 11154741
0.037566736 -0.039426342 0.523 10888746
0.03837321 -0.039426342 0.523 11216423
0.055913962 -0.039426342 0.523 11487814
0.056518815 -0.039426342 0.523 11290437
0.057325289 -0.039426342 0.523 10961217
0.037566736 -0.0388248 0.523 10823467
0.038675636 -0.038524032 0.523 11085603
0.039582916 -0.038223267 0.523 11282213
0.040187769 -0.038223267 0.523 11282213
0.054502636 -0.038223267 0.523 11357004
0.055430084 -0.038343571 0.523 11293779
0.056518815 -0.0388248 0.523 10963788
0.057325289 -0.0388248 0.523 10699335
0.038978063 -0.037421212 0.523 11085599
0.039582916 -0.037421212 0.523 11020069
0.040187769 -0.037421212 0.523 11020327
0.054502636 -0.037421212 0.523 11226447
0.055309109 -0.037421212 0.523 10637910
0.042607184 -0.03641865 0.523 11151148
0.043413658 -0.03641865 0.523 11216685
0.051478371 -0.03641865 0.523 11152181
0.052284848 -0.03641865 0.523 10957874
0.042607184 -0.035616599 0.523 11020080
0.043413658 -0.035616599 0.523 11151153
0.051478371 -0.035616599 0.523 10889526
0.052284844 -0.035616599 0.523 11024184
0.042688649 -0.058586847 0.52400005 13119535
0.043496665 -0.058586843 0.52400011 13382707
0.04450668 -0.05858684 0.52400011 13448497
0.045314688 -0.05858684 0.52400011 13644585
0.049758766 -0.05858684 0.52400011 13577509
0.050566781 -0.05858684 0.52400011 13511715
0.051576801 -0.058586843 0.52400011 13446179
0.052384812 -0.058586847 0.52400005 13577765
0.042688649 -0.057783257 0.52400005 13185071
0.043496665 -0.057783257 0.52400005 13382448
0.04450668 -0.057783257 0.52400005 13645619
0.045314692 -0.057783257 0.52400005 13710378
0.049758766 -0.057783257 0.52400005 13708581
0.050566781 -0.057783257 0.52400005 13708581
0.051576804 -0.057783257 0.52400005 13577509
0.052384812 -0.057783257 0.52400005 13577765
0.056424882 -0.053564448 0.52400011 13381413
0.057434894 -0.05356444 0.52400005 12921636
0.056424882 -0.052760858 0.52400011 13249570
0.057434894 -0.052760858 0.52400005 12921378
0.035820533 -0.050350107 0.52400005 12133669
0.036426544 -0.050350104 0.52400005 12461349
0.037032556 -0.050350107 0.52400005 12592162
0.058444917 -0.050350104 0.52400011 12658978
0.059252929 -0.050350107 0.52400005 12527651
0.035820533 -0.049546525 0.52400005 12068390
0.036426544 -0.049546525 0.52400005 12396069
0.037032556 -0.049546525 0.52400005 12526880
0.058444917 -0.049546525 0.52400011 12593441
0.059252929 -0.049546525 0.52400005 12527650
0.035820533 -0.048542041 0.52400005 12003367
0.036426544 -0.048542041 0.52400011 12396841
0.037032556 -0.048542041 0.52400005 12462375
0.057636902 -0.048341148 0.52400005 12789792
0.058444917 -0.048542045 0.52400011 12396320
0.059252929 -0.048542041 0.52400005 12264993
0.035820533 -0.047738459 0.52400005 11938603
0.036426544 -0.047738459 0.52400005 12397098
0.037032556 -0.047738459 0.52400005 12528427
0.057636902 -0.047537565 0.52400005 12789792
0.058444917 -0.047537565 0.52400011 12265250
0.059252929 -0.047537565 0.52400005 12133921
0.057636902 -0.046533082 0.52400005 12658723
0.058444917 -0.046533082 0.52400011 12134180
0.059252929 -0.046533082 0.52400005 12003107
0.057636902 -0.045528606 0.52400005 12593191
0.058444917 -0.045528606 0.52400011 12134434
0.059252929 -0.045528606 0.52400005 12003363
0.057636902 -0.044524122 0.52400005 12199458
0.058444917 -0.044524126 0.52400011 11806757
0.059252929 -0.044524122 0.52400005 11675686
0.035820533 -0.043318748 0.52400005 11680571
0.036426544 -0.043318748 0.52400005 11876151
0.037032556 -0.043318748 0.52400005 12334388
0.057636902 -0.043519646 0.52400005 11806240
0.058444917 -0.043519646 0.52400011 11478823
0.059252929 -0.043519646 0.52400005 11413032
0.035820533 -0.042515162 0.52400005 11548986
0.036426544 -0.042515159 0.52400011 11678517
0.037032556 -0.042515162 0.52400005 12005425
0.057636902 -0.042716056 0.52400005 11478822
0.058444917 -0.042515162 0.52400011 11150891
0.059252929 -0.042515162 0.52400005 11019822
0.040668614 -0.036488283 0.52400005 10627371
0.041476626 -0.036488283 0.52400011 10823724
0.042284641 -0.036488283 0.52400005 11020076
0.05278882 -0.036488283 0.52400005 11089460
0.053394828 -0.036488283 0.52400011 10697013
0.05400084 -0.036488283 0.52400005 11093572
0.040668614 -0.035684701 0.52400005 10430768
0.041476626 -0.035684701 0.52400005 10627120
0.042284641 -0.035684701 0.52400005 10823728
0.05278882 -0.035684701 0.52400005 11287356
0.053394832 -0.035684701 0.52400005 8599619
0.05400084 -0.035684701 0.52400005 8408402
0.052889563 -0.059101205 0.52500004 13577765
0.05349673 -0.059101205 0.52500004 13446693
0.054306284 -0.059101205 0.52500004 13381413
0.052889563 -0.058497369 0.52500004 13577765
0.05349673 -0.058497369 0.52500004 13446693
0.054306284 -0.058497366 0.52500004 13447207
0.039531894 -0.057289694 0.52500004 12986398
0.040341448 -0.05728969 0.52500004 12986657
0.052889563 -0.05789353 0.52500004 13577765
0.05349673 -0.05789353 0.52500004 13512486
0.05457614 -0.057490971 0.52500004 13447465
0.055520616 -0.057289694 0.52500004 13251368
0.056127787 -0.05728969 0.52500004 13185832
0.03953189 -0.056484576 0.52500004 13051685
0.040341448 -0.056484573 0.52500004 13117476
0.054711062 -0.056484573 0.52500004 13447979
0.055520616 -0.056484573 0.52500004 13317161
0.056127787 -0.056484573 0.52500004 13185832
0.037710395 -0.055276897 0.52500004 12264734
0.038519949 -0.055276901 0.52500004 12724000
0.039531898 -0.055880737 0.52500004 13051941
0.040341448 -0.055880737 0.52500004 13183271
0.054711066 -0.055880737 0.52500004 13186348
0.055520616 -0.055880737 0.52500004 13317161
0.056474738 -0.05536316 0.52500004 13316648
0.057544507 -0.055276901 0.52500004 13053997
0.037710395 -0.05447178 0.52500004 12330524
0.038519949 -0.05447178 0.52500004 12789789
0.056532562 -0.05447178 0.52500004 13447463
0.057544507 -0.05447178 0.52500004 13053481
0.035888895 -0.053465385 0.52500004 11806244
0.036496058 -0.053465381 0.52500004 12133924
0.037103228 -0.053465385 0.52500004 12199460
0.035888895 -0.052458987 0.52500004 12068133
0.036496058 -0.052458987 0.52500004 12199210
0.037103228 -0.052458987 0.52500004 12330280
0.058556452 -0.052257705 0.52500004 12593703
0.059366006 -0.052257709 0.52500004 12528425
0.035888895 -0.051452592 0.52500004 12133669
0.036496058 -0.051452588 0.52500004 12395815
0.037103228 -0.051452592 0.52500004 12461094
0.058556452 -0.051452592 0.52500004 12593701
0.059366006 -0.051452588 0.52500004 12528165
0.035888895 -0.041589901 0.52500004 11350839
0.036496058 -0.041589901 0.52500004 11546419
0.037103228 -0.041589901 0.52500004 11741999
0.058556449 -0.041589905 0.52500004 10823725
0.059366006 -0.041589901 0.52500004 10430510
0.035888895 -0.040784784 0.52500004 11086899
0.036496058 -0.040784784 0.52500004 11217200
0.037103228 -0.040784784 0.52500004 11282477
0.058556449 -0.040784787 0.52500004 10366513
0.059366006 -0.040784784 0.52500004 9777716
0.037710395 -0.038369432 0.52500004 10757930
0.038519949 -0.038369432 0.52500004 11020068
0.056532562 -0.038369436 0.52500004 10570317
0.057544511 -0.038369436 0.52500004 9913930
0.037710395 -0.037564315 0.52500004 10431018
0.038519949 -0.037564315 0.52500004 10888995
0.056532562 -0.037564319 0.52500004 9588819
0.057544511 -0.037564315 0.52500004 10120044
0.039531894 -0.036557924 0.52500004 11020327
0.040341448 -0.036557917 0.52500004 10627371
0.039531898 -0.035752803 0.52500004 9711667
0.040341448 -0.035752803 0.52500004 10496561
0.042770118 -0.035350244 0.52500004 11020080
0.043579672 -0.035350244 0.52500004 11151152
0.044591617 -0.035350244 0.52500004 11151150
0.045401171 -0.035350244 0.52500004 11216943
0.046413112 -0.035350244 0.52500004 11151405
0.047425061 -0.035350244 0.52500004 11086123
0.04843701 -0.035350244 0.52500004 11085871
0.049448952 -0.035350244 0.52500004 11151669
0.050460894 -0.035350244 0.52500004 10823983
0.042770118 -0.034545127 0.52500004 9581364
0.043579672 -0.034545127 0.52500004 9908531
0.044591617 -0.034545127 0.52500004 10104628
0.045401175 -0.034545127 0.52500004 10039092
0.046413116 -0.034545124 0.52500004 10169652
0.047425061 -0.034545127 0.52500004 10104117
0.048437003 -0.034545124 0.52500004 9907763
0.049448952 -0.034545127 0.52500004 9777206
0.050460894 -0.034545131 0.52500004 9059134
0.046501521 -0.060423758 0.52600002 13315364
0.047515396 -0.060423758 0.52600002 13314851
0.048529267 -0.060423758 0.52600002 13314851
0.049543139 -0.060423762 0.52600002 13314851
0.050557014 -0.060423758 0.52600002 13249315
0.041432165 -0.05921378 0.52600002 12658972
0.042243261 -0.05921378 0.52600002 12987939
0.046501521 -0.059617106 0.52600002 13512229
0.047515396 -0.059617106 0.52600002 13577765
0.048529267 -0.059617106 0.52600002 13577765
0.049543139 -0.059617106 0.52600002 13446179
0.050557006 -0.059617106 0.52600002 13446179
0.041432161 -0.058407128 0.52600002 12855837
0.042243261 -0.058407128 0.52600002 12987426
0.037782222 -0.057398811 0.52600002 12198942
0.038593322 -0.057398811 0.52600002 12592667
0.037782222 -0.056592163 0.52600002 12198945
0.038593322 -0.056592166 0.52600002 12657954
0.037782222 -0.055987176 0.52600002 12264736
0.038593322 -0.055987176 0.52600002 12723747
0.058465209 -0.05356722 0.52600002 12593703
0.059276309 -0.053567227 0.52600002 12462887
0.058465209 -0.052760571 0.52600002 12659238
0.059276305 -0.052760571 0.52600002 12528425
0.034537833 -0.049130645 0.52600002 11478563
0.035348929 -0.049130645 0.52600002 11872294
0.034537833 -0.048525658 0.52600002 11544870
0.035348929 -0.048525658 0.52600002 11872808
0.034537833 -0.047517341 0.52600002 11611436
0.035348933 -0.047517341 0.52600002 11807789
0.034537833 -0.046509031 0.52600002 11546931
0.035348929 -0.046509027 0.52600002 11743283
0.034537833 -0.045500711 0.52600002 11547961
0.035348933 -0.045500714 0.52600002 11678776
0.034537833 -0.044492397 0.52600002 11417917
0.035348929 -0.044492401 0.52600002 11548730
0.034537833 -0.043887414 0.52600002 11419714
0.035348929 -0.043887414 0.52600002 11483964
0.035957254 -0.040257484 0.52600002 11020594
0.036565579 -0.040257484 0.52600002 11020080
0.037173901 -0.040257484 0.52600002 11020334
0.058465209 -0.040257484 0.52600002 10958393
0.059276305 -0.040257484 0.52600002 9912130
0.035957254 -0.039450835 0.52600002 10561841
0.036565576 -0.039450835 0.52600002 10560813
0.037173901 -0.039450835 0.52600002 10626603
0.058465209 -0.039450832 0.52600002 9651013
0.059276309 -0.039450835 0.52600002 8938336
0.054612495 -0.037030879 0.52600002 11553350
0.055423591 -0.037030879 0.52600002 10242639
0.056234691 -0.037030879 0.52600002 10771810
0.054612495 -0.036425889 0.52600002 11093830
0.055423591 -0.036425892 0.52600002 9328731
0.056234691 -0.036425889 0.52600002 10846338
0.041432165 -0.035215911 0.52600002 9841975
0.042243261 -0.035215914 0.52600002 10431026
0.051570877 -0.035215914 0.52600002 9579313
0.052584756 -0.035215911 0.52600002 9780542
0.054612495 -0.035820901 0.52600002 9000539
0.055423591 -0.035820901 0.52600002 9732481
0.056234691 -0.035820901 0.52600002 10260111
0.041432165 -0.034409262 0.52600002 8602447
0.042243261 -0.034409262 0.52600002 9190466
0.051570877 -0.034409262 0.52600002 9658209
0.052584749 -0.034409266 0.52600002 10386299
0.0415897 -0.061058369 0.528 12726058
0.042403881 -0.061058369 0.528 12989228
0.053598877 -0.061058369 0.528 13052710
0.054413062 -0.061058369 0.528 12921637
0.0415897 -0.060451075 0.528 12593701
0.042630665 -0.060488604 0.52757138 13054764
0.043542534 -0.060538635 0.52700001 13383990
0.044558331 -0.060538635 0.52700001 13186352
0.045574129 -0.060538631 0.52700001 13447463
0.051668923 -0.060538635 0.52700001 13249314
0.052481562 -0.060538635 0.52700001 13249314
0.053294174 -0.060503613 0.52740002 13249315
0.054413062 -0.060451075 0.52799994 13118500
0.038536515 -0.0592365 0.52799994 12395812
0.039461296 -0.059266452 0.52766663 12657956
0.040495131 -0.059326362 0.52700001 12658721
0.0415897 -0.05984379 0.528 12658722
0.042580273 -0.059806008 0.52766663 13053737
0.043542534 -0.059730452 0.52700001 13448757
0.044558331 -0.059730452 0.52700001 13317169
0.045574129 -0.059730452 0.52700001 13578792
0.051668923 -0.059730452 0.52700001 13446179
0.052481562 -0.059730452 0.52700001 13446179
0.053344958 -0.059787121 0.52750003 13380643
0.054413062 -0.05984379 0.528 13381157
0.055528965 -0.059326362 0.52700001 12922917
0.0563416 -0.059326358 0.52700001 12923432
0.038536519 -0.058426782 0.52799994 12526884
0.039549775 -0.058481615 0.52740002 12789283
0.040495131 -0.058518171 0.52700001 12789793
0.055528965 -0.058518171 0.52700001 13054503
0.0563416 -0.058518171 0.52700001 12989225
0.036501065 -0.057414636 0.52799994 11936545
0.037315246 -0.057414632 0.528 12002081
0.056747921 -0.05750794 0.52700001 13055018
0.057560563 -0.057507943 0.52700001 12991028
0.036501061 -0.05640249 0.52799994 11936544
0.037315246 -0.05640249 0.528 12067873
0.056747925 -0.056497712 0.52700001 13186090
0.057560556 -0.056497712 0.52700001 12989744
0.036431935 -0.05548748 0.52700001 11871005
0.037244573 -0.055487484 0.52700001 12133662
0.058687508 -0.055592768 0.528 12398896
0.059501693 -0.055592772 0.528 12135983
0.034669153 -0.054175761 0.528 11215647
0.035483338 -0.054175761 0.528 11543841
0.036431935 -0.054679293 0.52700001 11936798
0.037244573 -0.054679297 0.52700001 12133917
0.058687512 -0.05478305 0.528 12397610
0.059501693 -0.05478305 0.528 12200746
0.034669153 -0.053568475 0.528 11215905
0.035483338 -0.053568475 0.528 11609636
0.034625385 -0.052490223 0.52733332 11477793
0.035438538 -0.052490223 0.52733332 11871268
0.060519416 -0.0523539 0.52799994 12134955
0.0613336 -0.052353896 0.528 11873063
0.034603499 -0.051446557 0.52700001 11609122
0.035416134 -0.051446557 0.52700001 11936804
0.060519423 -0.051544178 0.52799994 12265512
0.0613336 -0.051544178 0.528 11872293
0.034603495 -0.050436322 0.52700001 11543586
0.035416137 -0.050436322 0.52700001 11937060
0.059998479 -0.050436329 0.52700001 12396067
0.060607959 -0.050436322 0.52700001 12134180
0.061217438 -0.050436322 0.52700001 11872036
0.032837246 -0.049317453 0.528 11019296
0.033447884 -0.049317453 0.528 11281698
0.034421839 -0.049524575 0.52733332 11412770
0.035416134 -0.049628139 0.52700001 11806501
0.059998479 -0.049426094 0.52700001 12199714
0.060607962 -0.049426094 0.52700001 11937827
0.061217438 -0.049426094 0.52700001 11676197
0.032837246 -0.048507735 0.528 10955045
0.033447884 -0.048507739 0.52799994 11282725
0.034058519 -0.048507739 0.528 11479334
0.059998479 -0.048415858 0.52700001 12003105
0.060607959 -0.048415858 0.52700001 11740961
0.061217438 -0.048415858 0.52700001 11544610
0.032837246 -0.047495589 0.528 10956845
0.033447884 -0.047495589 0.528 11349806
0.034058519 -0.047495589 0.528 11611950
0.059998479 -0.04740563 0.52700001 11806241
0.060607959 -0.04740563 0.52700001 11609889
0.061217438 -0.04740563 0.52700001 11413024
0.032837246 -0.046483438 0.528 10893110
0.033447884 -0.046483438 0.52799994 11285814
0.034058519 -0.046483438 0.528 11547445
0.059998479 -0.046597447 0.52700001 11610149
0.060607962 -0.046597447 0.52700001 11478564
0.061217438 -0.046597447 0.52700001 11281443
0.032837246 -0.045673721 0.528 10762814
0.033447884 -0.045673721 0.528 11221054
0.034058519 -0.045673721 0.528 11614012
0.059998479 -0.045587216 0.52700001 11217193
0.060607959 -0.045587216 0.52700001 11151144
0.061217438 -0.045587216 0.52700001 11216168
0.059998479 -0.044576988 0.52700001 11086121
0.060607962 -0.044576988 0.52700001 10954793
0.061217438 -0.044576988 0.52700001 10823465
0.034603499 -0.043364711 0.52700001 11354949
0.035416134 -0.043364707 0.52700001 11484735
0.059998479 -0.043566752 0.52700001 10757932
0.060607959 -0.04356676 0.52700001 10364972
0.061217438 -0.043566752 0.52700001 10432308
0.034603499 -0.042556524 0.52700001 11027783
0.035416134 -0.042556524 0.52700001 11287870
0.059998479 -0.042556524 0.52700001 10103092
0.060607959 -0.042556524 0.52700001 9449786
0.061217438 -0.042556524 0.52700001 9915474
0.034603495 -0.041546289 0.52700001 10765125
0.035416134 -0.041546289 0.52700001 11089980
0.059998479 -0.041546293 0.52700001 8730171
0.060607959 -0.041546289 0.52700001 9064787
0.061217438 -0.041546293 0.52700001 9398891
0.034647267 -0.040384788 0.52766663 10564665
0.035460938 -0.040384784 0.52766663 10758963
0.059998479 -0.040738109 0.52700001 8345172
0.060541555 -0.040340617 0.52774996 9007728
0.06129488 -0.040384784 0.52766669 9273727
0.034669153 -0.039398406 0.528 9383988
0.035483338 -0.039398406 0.528 10103859
0.060519423 -0.039398406 0.52799994 9143426
0.0613336 -0.039398406 0.528 9866381
0.036431935 -0.038515601 0.52700001 10298928
0.037244573 -0.038515601 0.52700001 10364201
0.058687508 -0.038588688 0.528 9922665
0.059501693 -0.038588688 0.528 9471361
0.036431935 -0.037707418 0.52700001 9448499
0.037244573 -0.037707418 0.52700001 9971755
0.038463533 -0.03710128 0.52700001 10758439
0.056855604 -0.03717168 0.528 9990257
0.057466239 -0.03717168 0.528 10320507
0.058565386 -0.03765751 0.528 10324617
0.059501693 -0.03777897 0.528 9802897
0.038463533 -0.036495138 0.52700001 9776431
0.056855604 -0.036564395 0.528 9865351
0.057466239 -0.036564395 0.528 10720661
0.058076873 -0.036564395 0.528 10852248
0.038463533 -0.035889 0.52700001 8404544
0.039757788 -0.035349816 0.528 8994881
0.040571969 -0.035349816 0.52799994 9253176
0.053700522 -0.035282865 0.52700001 9462376
0.054513164 -0.035282865 0.52700001 10781575
0.055430785 -0.035349816 0.528 11179929
0.056367092 -0.035471275 0.528 10787226
0.057466239 -0.035957105 0.528 10590874
0.058076873 -0.035957105 0.528 10590875
0.039757788 -0.034540094 0.528 9599098
0.040571969 -0.034540098 0.52799994 9198949
0.053700522 -0.034474678 0.52700001 10524311
0.054513164 -0.034474678 0.52700001 10918814
0.055430785 -0.034540094 0.528 11182242
0.056244969 -0.034540094 0.528 10788511
0.039757788 -0.033932809 0.528 9669003
0.040571973 -0.033932809 0.528 10323595
0.041386154 -0.033932809 0.528 10451587
0.043421607 -0.033527948 0.52799994 9531248
0.044439334 -0.033527948 0.52799994 9595498
0.045457058 -0.033527948 0.52799994 9332068
0.046474785 -0.033527944 0.52799994 9463655
0.047492515 -0.033527948 0.52799994 9858672
0.048510242 -0.033527948 0.52799994 10057081
0.049527965 -0.033527948 0.52799994 10584712
0.050545696 -0.033527944 0.52799994 10718867
0.051359877 -0.033527952 0.52799994 11179931
0.05482015 -0.033932809 0.528 10920355
0.055430785 -0.033932809 0.528 10788769
0.056244966 -0.033932809 0.528 10657953
0.043421607 -0.032515798 0.52799994 9801357
0.044439334 -0.032515801 0.528 9473161
0.045457061 -0.032515801 0.52799994 9539468
0.046474788 -0.032515801 0.528 10130838
0.047492515 -0.032515801 0.52799994 10656669
0.048510242 -0.032515801 0.528 10591646
0.049527969 -0.032515798 0.52799994 10526623
0.050545692 -0.032515801 0.528 10592160
0.051359877 -0.032515801 0.528 10722976
0.046562809 -0.062593699 0.52900004 12790827
0.047582462 -0.062593706 0.52900004 12921639
0.048602119 -0.062593699 0.52900004 12986919
0.049417838 -0.062593699 0.52900004 12986920
0.050029635 -0.062593699 0.52900004 12986922
0.046562809 -0.061782446 0.52900004 13118503
0.047582462 -0.061782446 0.52900004 13183525
0.048602119 -0.061782446 0.52900004 13183269
0.049417842 -0.061782446 0.52900004 13183269
0.050029635 -0.061782446 0.52900004 13183269
0.056963284 -0.059348691 0.52900004 12923432
0.057575077 -0.059348691 0.52900004 12465705
0.05818687 -0.059348691 0.52900004 12205101
0.056963284 -0.058537439 0.52900004 12989225
0.057575077 -0.058537439 0.52900004 12859947
0.05818687 -0.058537439 0.52900004 12730669
0.032899439 -0.051033359 0.52900004 10822431
0.033511229 -0.051033359 0.52900004 11084319
0.034123026 -0.051033359 0.52900004 11346464
0.032899439 -0.050424922 0.52900004 10822431
0.033511229 -0.050424922 0.52900004 10953503
0.034123026 -0.050424922 0.52900004 11346464
0.032899439 -0.049816482 0.52900004 10953503
0.033511229 -0.049816482 0.52900004 11150112
0.034123026 -0.049816482 0.52900004 11347234
0.032899439 -0.045354597 0.52900004 10762814
0.033511229 -0.045354597 0.52900004 11286847
0.034123026 -0.045354597 0.52900004 11614012
0.032899439 -0.044543345 0.52900004 10632769
0.033511229 -0.044543352 0.52900004 11222595
0.034123026 -0.044543345 0.52900004 11484480
0.032899439 -0.04352928 0.52900004 10503746
0.033511229 -0.04352928 0.52900004 10635589
0.034123026 -0.04352928 0.52900004 11355720
0.032899439 -0.042718031 0.52900004 10372423
0.033511229 -0.042718031 0.52900004 10505803
0.034123026 -0.042718031 0.52900004 11028812
0.052476805 -0.033591449 0.52900004 10787998
0.053292528 -0.033591449 0.52900004 10854304
0.052476805 -0.032577384 0.52900004 10788512
0.053292528 -0.032577384 0.52900004 10788769
