# .PCD v0.7 - Point Cloud Data file format
VERSION 0.7
FIELDS x y z rgb
SIZE 4 4 4 4
TYPE F F F U
COUNT 1 1 1 1
WIDTH 566
HEIGHT 1
VIEWPOINT 0 0 0 1 0 0 0
POINTS 566
DATA ascii
0.04472743 -0.051033359 0.52900004 14629683
0.045543153 -0.051033359 0.52900004 14498611
0.04472743 -0.050424922 0.52900004 14629685
0.045543153 -0.050424922 0.52900004 14629685
0.04472743 -0.049816482 0.52900004 14760503
0.045543153 -0.04961367 0.52900004 14760503
0.031471923 -0.037444893 0.52900004 12536399
0.032287646 -0.037444893 0.52900004 14040896
0.031471923 -0.036430832 0.52900004 12275024
0.032287646 -0.036430828 0.52900004 14041152
0.031471923 -0.035416767 0.52900004 12407894
0.032287646 -0.035416767 0.52900004 13976387
0.031471923 -0.034605511 0.52900004 12080985
0.032287646 -0.034605511 0.52900004 13583684
0.031471923 -0.033591449 0.52900004 11689312
0.032287646 -0.033591449 0.52900004 13060938
0.031471923 -0.032577384 0.52900004 11495533
0.032287646 -0.032577384 0.52900004 12866903
0.031471923 -0.031563316 0.52900004 10384503
0.032287646 -0.031563316 0.52900004 11560286
0.031471923 -0.030752067 0.52900004 10319995
0.032287646 -0.030752067 0.52900004 11496550
0.032899439 -0.027101435 0.52900004 10653073
0.033511229 -0.027101435 0.52900004 10124418
0.034123026 -0.027101435 0.52900004 11498612
0.032899439 -0.026492994 0.52900004 11245724
0.033511229 -0.026492994 0.52900004 10718096
0.034123026 -0.026492994 0.52900004 10845564
0.032899439 -0.025884558 0.52900004 11114909
0.033511229 -0.025884558 0.52900004 11048346
0.034123026 -0.025884558 0.52900004 11179411
0.05859473 -0.020205796 0.52900004 11382451
0.059410453 -0.020205796 0.52900004 11316658
0.05859473 -0.019597355 0.52900004 11578805
0.059410457 -0.019597357 0.52900004 11513012
0.055535767 -0.018380478 0.52900004 11840693
0.05635149 -0.018380478 0.52900004 11709621
0.05859473 -0.018988917 0.52900004 11578805
0.059410453 -0.018988917 0.52900004 11578806
0.055535767 -0.017569227 0.52900004 11840693
0.05635149 -0.017569227 0.52900004 11709621
0.043586086 -0.051129829 0.53000003 14629683
0.044403348 -0.051129829 0.53000003 14629683
0.043586086 -0.050520241 0.53000003 14629685
0.044403348 -0.050520241 0.53000003 14629685
0.03990839 -0.049301066 0.53000003 14957109
0.040521339 -0.049301066 0.53000003 14826037
0.041134287 -0.049301066 0.53000003 14826038
0.043586086 -0.049910653 0.53000003 14760503
0.044403348 -0.049910653 0.53000003 14760503
0.03990839 -0.048488278 0.53000003 14760757
0.040521339 -0.048488282 0.53000003 14826036
0.041134287 -0.048488278 0.53000003 14891572
0.061974559 -0.047472298 0.53000003 14235444
0.062587507 -0.047472298 0.53000003 14498875
0.063404776 -0.047472294 0.53000003 14176591
0.061974559 -0.046659511 0.53000003 14759728
0.062587507 -0.046659511 0.53000003 14957106
0.063472882 -0.046524048 0.53000003 14695482
0.063609093 -0.045440335 0.53000003 14760242
0.064426348 -0.045440335 0.53000003 14437187
0.065243624 -0.045440335 0.53000003 12284281
0.063609093 -0.044627547 0.53000003 14498093
0.064426355 -0.044627547 0.53000003 14435123
0.065243624 -0.044424351 0.53000003 12803947
0.032961633 -0.042392388 0.53000003 13910080
0.033574581 -0.042392388 0.53000003 14564660
0.034187529 -0.042392388 0.53000003 14564658
0.032961633 -0.041579604 0.53000003 14040896
0.033574581 -0.041579604 0.53000003 14368308
0.034187529 -0.041579604 0.53000003 14564410
0.066878155 -0.040360425 0.53000003 11042182
0.067491099 -0.040563621 0.53000003 11309466
0.068308368 -0.040563621 0.53000003 10656160
0.031531416 -0.039344445 0.53000003 12274512
0.032348685 -0.039344445 0.53000003 13909828
0.066878155 -0.039750837 0.53000003 11172998
0.067491099 -0.039750837 0.53000003 11703453
0.068308368 -0.039750837 0.53000003 10852512
0.031531416 -0.038531657 0.53000003 12405328
0.032553002 -0.038531657 0.53000003 14106177
0.031531416 -0.030403806 0.53000003 9600892
0.032348685 -0.030403806 0.53000003 10514797
0.031531416 -0.029591022 0.53000003 9930886
0.032348685 -0.029591022 0.53000003 10450548
0.065447941 -0.027152665 0.53000003 11117482
0.06646952 -0.027152665 0.53000003 11447985
0.065447941 -0.026543077 0.53000003 11446447
0.06646952 -0.026543075 0.53000003 11514548
0.065652251 -0.025933487 0.53000003 11643826
0.06646952 -0.025933487 0.53000003 11515318
0.036639325 -0.021463171 0.53000003 10788003
0.037456591 -0.021463171 0.53000003 10853283
0.036639325 -0.020650385 0.53000003 10853796
0.037456591 -0.020650385 0.53000003 10722724
0.038478173 -0.020243991 0.53000003 10722722
0.039295439 -0.020243991 0.53000003 10788515
0.038478173 -0.019431205 0.53000003 10657188
0.039295439 -0.019431205 0.53000003 10722981
0.041747235 -0.018415224 0.53000003 11050409
0.042564504 -0.018415224 0.53000003 10984616
0.057479601 -0.018415224 0.53000003 11644085
0.058296863 -0.018415224 0.53000003 11578805
0.041747235 -0.01760244 0.53000003 11050409
0.042564504 -0.01760244 0.53000003 11116202
0.057479601 -0.01760244 0.53000003 11644085
0.058296863 -0.01760244 0.53000003 11578805
0.048785869 -0.052447777 0.53100008 14498096
0.04960468 -0.052447777 0.53100008 14628911
0.050423488 -0.052447777 0.53100008 14825776
0.051446997 -0.052447774 0.53100008 14825775
0.052470505 -0.052447777 0.53100008 14825779
0.053494014 -0.052447774 0.53100008 14825779
0.054517522 -0.052447777 0.53100008 14957108
0.055131629 -0.052447777 0.53100002 15087923
0.048785873 -0.051429879 0.53100002 14759986
0.049536441 -0.051497739 0.53100002 14759987
0.050423484 -0.051633459 0.53100002 14759986
0.051446993 -0.051633459 0.53100002 14759985
0.052470505 -0.051633459 0.53100002 14759987
0.05349401 -0.051633459 0.53100002 14759986
0.054517522 -0.051633459 0.53100002 14759984
0.055131629 -0.051633459 0.53100002 14957105
0.060658582 -0.049394086 0.53100002 14498871
0.061477385 -0.049394086 0.53100002 14565698
0.062091492 -0.049394086 0.53100002 13782359
0.060658582 -0.048579767 0.53100002 14563643
0.061477385 -0.048579767 0.53100002 14498622
0.062091492 -0.048579767 0.53100002 13910082
0.065776125 -0.044304594 0.53100002 14052473
0.066390231 -0.044304594 0.53100002 12094104
0.067004338 -0.044304594 0.53100002 10786978
0.06557142 -0.043490276 0.53100008 13325146
0.066390231 -0.043490276 0.53100008 12352136
0.067004338 -0.043490276 0.53100002 10917791
0.067618445 -0.029239696 0.53100002 11446443
0.068437248 -0.029239696 0.53100002 11709868
0.031590912 -0.028425379 0.53100008 10983835
0.03240972 -0.028425379 0.53100008 10192516
0.067618445 -0.028425379 0.53100008 11644594
0.068437248 -0.028425379 0.53100008 11908022
0.031590909 -0.027611058 0.53100002 11576745
0.03240972 -0.027611058 0.53100002 10982292
0.067618445 -0.027611058 0.53100002 11973815
0.068437248 -0.027611058 0.53100002 12105658
0.03363793 -0.025371682 0.53100002 11115939
0.034252036 -0.025371682 0.53100002 11180702
0.03363793 -0.024557361 0.53100002 11116196
0.034252036 -0.024557361 0.53100002 10984607
0.063729107 -0.022317983 0.53100002 11382196
0.062500894 -0.021503665 0.53100008 11316402
0.06352441 -0.021503665 0.53100008 11382452
0.060658582 -0.020282187 0.53100002 11382196
0.061477385 -0.020282187 0.53100002 11316155
0.062398545 -0.020587556 0.53100002 11316410
0.06352441 -0.020689346 0.53100002 11448247
0.060658585 -0.019467868 0.53100008 11447479
0.061477382 -0.019467868 0.53100008 11578813
0.062091488 -0.019467868 0.53100002 11513020
0.03998369 -0.01844997 0.53100002 10788521
0.040597796 -0.01844997 0.53100002 10919850
0.041211899 -0.01844997 0.53100002 10985386
0.03998369 -0.017635651 0.53100002 10722728
0.040597796 -0.017635651 0.53100002 10919850
0.041211899 -0.017635651 0.53100002 10919593
0.044896536 -0.017024912 0.53100002 11314351
0.045510642 -0.017024912 0.53100002 11314351
0.046534151 -0.017024912 0.53100002 11511730
0.047557659 -0.017024912 0.53100002 11774130
0.048581168 -0.017024912 0.53100002 11839923
0.049604677 -0.017024912 0.53100002 11840180
0.050218783 -0.017024912 0.53100002 11840693
0.051856399 -0.017024912 0.53100002 11841209
0.052470505 -0.017024912 0.53100002 11841209
0.053289309 -0.017024912 0.53100002 11841209
0.044896536 -0.016414173 0.53100002 11314611
0.045510642 -0.016414173 0.53100002 11446197
0.046534151 -0.016414173 0.53100008 11643319
0.047557659 -0.016414173 0.53100002 11774902
0.048581164 -0.016414173 0.53100008 11774900
0.049604677 -0.016414173 0.53100002 11709365
0.050218783 -0.016414173 0.53100002 11709623
0.051856399 -0.016414173 0.53100002 11840955
0.052470502 -0.016414173 0.53100002 11840955
0.053289309 -0.016414173 0.53100002 11840955
0.044896536 -0.015803434 0.53100002 11446451
0.045510642 -0.015803434 0.53100002 11578037
0.046534151 -0.015803434 0.53100002 11643830
0.047557659 -0.015803434 0.53100002 11709623
0.048581168 -0.015803434 0.53100002 11513014
0.049604677 -0.015803434 0.53100002 11644087
0.050218783 -0.015803434 0.53100002 11841209
0.051856399 -0.015803434 0.53100002 11841209
0.052470505 -0.015803434 0.53100002 11841209
0.053289309 -0.015803434 0.53100002 11841209
0.047442134 -0.052546561 0.53200001 14367024
0.048262488 -0.052546557 0.53200001 14498096
0.05564563 -0.052546557 0.53200001 15153713
0.056465976 -0.052546561 0.53200001 14891824
0.041699689 -0.051322777 0.53200001 14695476
0.042520035 -0.051322777 0.53200001 14629684
0.047442134 -0.051730704 0.53200001 14629169
0.048262484 -0.051730704 0.53200001 14759985
0.05564563 -0.051730704 0.53200001 14957105
0.05646598 -0.051730704 0.53200001 14957105
0.058721941 -0.051322777 0.53200001 14760503
0.059542291 -0.051322777 0.53200001 15023672
0.060362641 -0.051322777 0.53200001 14371144
0.041699689 -0.050506923 0.53200001 14629429
0.042520031 -0.05050692 0.53200001 14629429
0.058721945 -0.050506923 0.53200001 14760503
0.059542287 -0.050506923 0.53200001 14826549
0.060362648 -0.05050692 0.53200001 14499383
0.036777589 -0.048059363 0.53200001 14238004
0.037392851 -0.048059363 0.53200001 14368308
0.038213201 -0.048059363 0.53200001 14433333
0.036777589 -0.047447477 0.53200001 14368304
0.037392851 -0.047447473 0.53200001 14302514
0.038213201 -0.047447477 0.53200001 14302261
0.036777589 -0.046427656 0.53200001 14564404
0.037392851 -0.046427656 0.53200001 14367796
0.038213201 -0.046835586 0.53200001 14170932
0.033701278 -0.04438803 0.53200001 14630453
0.034521628 -0.04438803 0.53200001 14564410
0.03513689 -0.04438803 0.53200001 14564417
0.033701278 -0.043572173 0.53200001 14629940
0.034521628 -0.043572176 0.53200001 14564410
0.03513689 -0.043572176 0.53200001 14498624
0.06774579 -0.042552359 0.53200001 11048861
0.068566136 -0.042552359 0.53200001 10459806
0.031650402 -0.04112462 0.53200001 12079445
0.032470755 -0.04112462 0.53200001 13582919
0.06774579 -0.04173651 0.53200001 11113626
0.068566136 -0.04173651 0.53200001 10525086
0.031650402 -0.040512729 0.53200001 12078675
0.032470755 -0.040512729 0.53200001 13713735
0.031650402 -0.039900839 0.53200001 12143698
0.032470755 -0.039900839 0.53200001 13779014
0.069386482 -0.037453283 0.53200001 10525344
0.070206836 -0.037453283 0.53200001 10525344
0.069386482 -0.03643347 0.53200001 10328992
0.070206836 -0.03643347 0.53200001 10460063
0.069386482 -0.035413653 0.53200001 10329249
0.070206836 -0.035413653 0.53200001 10394785
0.068771221 -0.034189872 0.53200001 10461087
0.069386482 -0.034393836 0.53200001 10460576
0.070206836 -0.034393836 0.53200001 10526115
0.068771221 -0.033577986 0.53200001 10591389
0.06938649 -0.033577986 0.53200001 10657182
0.070206836 -0.033577986 0.53200001 10722977
0.068771221 -0.032966096 0.53200001 10788766
0.069386482 -0.032558169 0.53200001 11051424
0.070206836 -0.032558169 0.53200001 11117477
0.069386482 -0.031538352 0.53200001 11183526
0.070206836 -0.031538352 0.53200001 11250090
0.069386482 -0.030926464 0.53200001 11315115
0.070206836 -0.030926464 0.53200001 11381934
0.065899998 -0.025419461 0.53200001 11710389
0.066515267 -0.025419461 0.53200001 11842488
0.067130521 -0.025419461 0.53200001 12105658
0.065899998 -0.024603609 0.53200001 11776695
0.066515267 -0.024603609 0.53200001 11974074
0.067130521 -0.024603609 0.53200001 12105915
0.035547066 -0.022360014 0.53200001 10853798
0.035547066 -0.021544164 0.53200001 10853798
0.036367416 -0.021544164 0.53200001 10788005
0.035547063 -0.020728311 0.53200001 10853798
0.036572501 -0.020524347 0.53200001 10853797
0.037392851 -0.020320384 0.53200001 10788260
0.038008112 -0.020320384 0.53200001 10722724
0.036777589 -0.01950453 0.53200001 10788260
0.037392851 -0.019504532 0.53200001 10722724
0.038008112 -0.01950453 0.53200001 10657188
0.043545473 -0.017056974 0.53200001 11181995
0.044365823 -0.017056974 0.53200001 11051179
0.054415107 -0.017056974 0.53200001 11840693
0.055235457 -0.017056974 0.53200001 11840693
0.04354547 -0.016445085 0.53200001 11182765
0.044365823 -0.016445085 0.53200001 11117232
0.054415107 -0.016445084 0.53200001 11709622
0.055235457 -0.016445085 0.53200001 11709621
0.043545473 -0.015833195 0.53200001 11314351
0.044365823 -0.015833195 0.53200001 11314865
0.054415107 -0.015833195 0.53200001 11644085
0.055235457 -0.015833195 0.53200001 11578805
0.04568205 -0.05305402 0.53300005 14170675
0.046503946 -0.05305402 0.53300005 14170675
0.057599485 -0.05305402 0.53300005 14041916
0.058421373 -0.05305402 0.53300005 13391441
0.059037793 -0.05305402 0.53300005 12874103
0.045682054 -0.052440979 0.53300005 14301739
0.046503946 -0.052440979 0.53300005 14236204
0.057599485 -0.052440979 0.53300005 14760749
0.058421373 -0.052440979 0.53300005 14172213
0.059037793 -0.052440979 0.53300005 13783116
0.04568205 -0.051827941 0.53300005 14564147
0.046503946 -0.051827941 0.53300005 14564147
0.057599485 -0.051623594 0.53300005 14826546
0.058352884 -0.051691711 0.53300005 14826296
0.059037793 -0.051827941 0.53300005 14957882
0.038695976 -0.049580127 0.53300005 14564663
0.039517865 -0.049580127 0.53300005 14564404
0.06273631 -0.049580127 0.53300005 14440289
0.063558199 -0.049580127 0.53300005 12615300
0.03873707 -0.048640136 0.53300005 14367799
0.039517865 -0.048558395 0.53300005 14498613
0.06273631 -0.048762739 0.53300005 14107461
0.063558199 -0.048762739 0.53300005 13592424
0.064585567 -0.048149701 0.53300005 12812411
0.065407455 -0.048149701 0.53300005 11702928
0.064585567 -0.04753666 0.53300005 13462889
0.065407455 -0.04753666 0.53300005 12422539
0.064585567 -0.046719275 0.53300005 14505044
0.065407455 -0.046719275 0.53300005 13269883
0.066434816 -0.046106234 0.53300005 11703192
0.067256711 -0.046106234 0.53300005 10591138
0.066434823 -0.045493197 0.53300005 11898259
0.067256711 -0.045493197 0.53300005 10656162
0.066434816 -0.044880155 0.53300005 12355728
0.067256711 -0.044880155 0.53300005 10787235
0.02986064 -0.037523683 0.53300005 9996427
0.03047706 -0.037523683 0.53300005 10185065
0.031093476 -0.037523683 0.53300005 11951206
0.02986064 -0.036501952 0.53300005 10193806
0.030477058 -0.036501952 0.53300005 10053995
0.031093476 -0.036501952 0.53300005 11886952
0.02986064 -0.035480216 0.53300005 10456981
0.030477056 -0.03548022 0.53300005 10120561
0.031093476 -0.035480216 0.53300005 11691114
0.02986064 -0.034458488 0.53300005 10655390
0.030477058 -0.034458488 0.53300005 9991803
0.031093476 -0.034458488 0.53300005 11232877
0.02986064 -0.033436757 0.53300005 10984612
0.030477056 -0.033436757 0.53300005 10257030
0.031093476 -0.033436753 0.53300005 10512497
0.02986064 -0.032415021 0.53300005 11116455
0.030477058 -0.032415021 0.53300005 10325136
0.031093476 -0.032415021 0.53300005 9792370
0.02986064 -0.031597637 0.53300005 11051175
0.030477058 -0.031597637 0.53300005 10458776
0.031093476 -0.031597637 0.53300005 9729401
0.02986064 -0.030984595 0.53300005 11248554
0.030477058 -0.030984595 0.53300005 10656669
0.031093476 -0.030984595 0.53300005 10256516
0.031915367 -0.027306359 0.53300005 11642794
0.032531787 -0.027306359 0.53300005 11114909
0.031915367 -0.026488975 0.53300005 11774382
0.032531787 -0.026488975 0.53300005 11641767
0.033764623 -0.024036817 0.53300005 10985380
0.034586515 -0.024036817 0.53300005 10788003
0.035202935 -0.024036817 0.53300005 10722210
0.033764623 -0.023423776 0.53300005 11051431
0.034586515 -0.023423776 0.53300005 10853797
0.035202935 -0.023423776 0.53300005 10788004
0.033764627 -0.022606391 0.53300005 11051689
0.034586515 -0.022606391 0.53300005 11051177
0.035202935 -0.022810739 0.53300005 10919591
0.06273631 -0.020358581 0.53300005 11381948
0.063558199 -0.020358581 0.53300005 11382453
0.06273631 -0.019541195 0.53300005 11513020
0.063558191 -0.019541193 0.53300005 11447735
0.038695976 -0.018519461 0.53300005 10591911
0.039517865 -0.018519461 0.53300005 10591911
0.059448738 -0.018519461 0.53300005 11578805
0.060476106 -0.018519461 0.53300005 11578552
0.038695976 -0.017702077 0.53300005 10591912
0.039517865 -0.017702075 0.53300005 10591912
0.055750228 -0.017089037 0.53300005 11840693
0.056572121 -0.017089037 0.53300005 11709621
0.059448745 -0.017702075 0.53300005 11578805
0.060476106 -0.017702077 0.53300005 11578808
0.055750228 -0.016475998 0.53300005 11709621
0.056572121 -0.016475998 0.53300005 11578549
0.055750228 -0.015862957 0.53300005 11578805
0.056572121 -0.015862957 0.53300005 11578803
0.043915033 -0.053153556 0.53400004 14629431
0.044532612 -0.053153556 0.53400004 14498869
0.045150187 -0.053153556 0.53400004 14236211
0.043915033 -0.052539367 0.53400004 14629681
0.044532612 -0.052539367 0.53400004 14629679
0.045150187 -0.052539367 0.53400004 14367275
0.040415443 -0.051310986 0.53400004 14761269
0.041238874 -0.051310986 0.53400004 14695477
0.043915033 -0.051925179 0.53400004 14629683
0.044532612 -0.051925179 0.53400004 14629683
0.045150187 -0.051925179 0.53400004 14629683
0.061413005 -0.05131099 0.53400004 13918307
0.062236436 -0.05131099 0.53400004 13009028
0.040415443 -0.050492071 0.53400004 14957366
0.041238874 -0.050492067 0.53400004 14694966
0.061413005 -0.050492071 0.53400004 14239813
0.062236436 -0.050492067 0.53400004 13852517
0.03691585 -0.049468417 0.53400004 14107706
0.037533421 -0.049468424 0.53399998 14434104
0.038151 -0.049468417 0.53400004 14892089
0.035474841 -0.048240039 0.53400004 14042686
0.036504131 -0.048376527 0.53400004 14500156
0.037533425 -0.048649501 0.53400004 14368565
0.038151 -0.048649501 0.53400004 14564662
0.035474841 -0.047421124 0.53399998 14106433
0.036298275 -0.047421124 0.53399998 14302780
0.035474841 -0.04639747 0.53400004 14695240
0.036298275 -0.04639747 0.53400004 14302526
0.067794614 -0.04435017 0.53400004 10786978
0.068412185 -0.04435017 0.53400004 10263458
0.069029763 -0.04435017 0.53400004 10198179
0.067794614 -0.043531254 0.53400004 11048862
0.068412185 -0.043531254 0.53400004 10459550
0.069029763 -0.043531254 0.53400004 10329247
0.031975247 -0.042507604 0.53400004 12669263
0.032592822 -0.0425076 0.53399998 13125189
0.031975247 -0.041688684 0.53400004 13257806
0.032592826 -0.041688684 0.53400004 13517637
0.069647342 -0.041279223 0.53400004 10394526
0.070470773 -0.041279223 0.53400004 10395035
0.069647342 -0.040460307 0.53399998 10525342
0.070470773 -0.040460307 0.53399998 10460315
0.030534238 -0.039436653 0.53400004 10119534
0.031151814 -0.039436653 0.53400004 11885924
0.069647342 -0.039641384 0.53400004 10721951
0.070470773 -0.039641384 0.53400004 10525853
0.030534238 -0.038617738 0.53400004 10250604
0.031151814 -0.038617738 0.53400004 12082278
0.030534238 -0.03042854 0.53400004 11051173
0.031151814 -0.03042854 0.53400004 10129295
0.069441475 -0.030428542 0.53399998 11577774
0.070470773 -0.03042854 0.53400004 11579056
0.030534238 -0.029609621 0.53400004 11840689
0.031151814 -0.029609621 0.53400004 10722976
0.069523826 -0.029650565 0.53400004 11841709
0.070470773 -0.029609621 0.53400004 11908020
0.067794614 -0.027357593 0.53400004 11908279
0.068412185 -0.027357593 0.53400004 12105658
0.069029763 -0.027357593 0.53400004 12237244
0.067794614 -0.026538672 0.53400004 12039865
0.068412192 -0.026538672 0.53399998 12171451
0.069029763 -0.026538672 0.53400004 12237244
0.065736026 -0.024081914 0.53400004 11710902
0.066559464 -0.024081914 0.53400004 11974074
0.067382894 -0.024081914 0.53400004 12171708
0.065736026 -0.023467723 0.53400004 11776696
0.066559464 -0.023467725 0.53399998 11974075
0.067382894 -0.023467723 0.53400004 12171709
0.064706735 -0.022239344 0.53400004 11447989
0.065571338 -0.022362182 0.53400004 11710904
0.066559464 -0.022648804 0.53399998 12039612
0.067382894 -0.022648804 0.53400004 12171711
0.064706735 -0.021420425 0.53400004 11448248
0.065530166 -0.021420423 0.53400004 11579321
0.064706735 -0.020806234 0.53400004 11382455
0.065530166 -0.020806234 0.53400004 11579321
0.061413005 -0.018554207 0.53400004 11578553
0.062236436 -0.018554207 0.53400004 11644347
0.041856453 -0.017121097 0.53400004 11050409
0.042474024 -0.017121097 0.53400004 11181995
0.043091603 -0.017121097 0.53400004 11181995
0.057707552 -0.017121097 0.53400004 11709621
0.058530986 -0.017121097 0.53400004 11578805
0.059148561 -0.017121097 0.53400004 11578805
0.061413005 -0.017735286 0.53400004 11644346
0.062236436 -0.017735286 0.53400004 11578553
0.041856453 -0.016506907 0.53400004 11051179
0.042474024 -0.016506907 0.53400004 11051179
0.043091603 -0.016506907 0.53400004 11116972
0.057707552 -0.016506907 0.53400004 11709619
0.058530986 -0.016506907 0.53400004 11578805
0.059148561 -0.016506907 0.53400004 11578807
0.041856453 -0.015892718 0.53400004 11116972
0.042474024 -0.015892718 0.53400004 11116972
0.043091603 -0.015892718 0.53400004 11182765
0.057707552 -0.015892718 0.53400004 11578803
0.058530986 -0.015892718 0.53400004 11578803
0.059148561 -0.015892718 0.53400004 11578807
0.033685077 -0.046279244 0.53500003 13847615
0.034510054 -0.04627924 0.53500003 14369588
0.033685077 -0.045458794 0.53500003 14369850
0.034510057 -0.045458794 0.53500003 14499892
0.03533503 -0.04545879 0.53500003 14629695
0.030591421 -0.02904973 0.53500003 12038070
0.031210151 -0.02904973 0.53500003 11837862
0.030591421 -0.028434388 0.53500003 12103350
0.031210151 -0.028434388 0.53500003 11970476
0.030591421 -0.027819049 0.53500003 12168886
0.031210151 -0.027819049 0.53500003 12037041
0.032447614 -0.025562802 0.53500003 11577260
0.03327259 -0.025562804 0.53500003 11379111
0.032447618 -0.024537235 0.53500003 11511724
0.03327259 -0.024537235 0.53500003 11182759
0.033685077 -0.022075878 0.53500003 11117482
0.034510054 -0.022075878 0.53500003 11051177
0.033685077 -0.021460537 0.53500003 11117484
0.03451005 -0.021460539 0.53500003 11051177
0.033685077 -0.020845199 0.53500003 11117484
0.034510054 -0.020845199 0.53500003 11051177
0.035541274 -0.020229859 0.53500003 10919591
0.036366247 -0.020229857 0.53500003 10853798
0.035541274 -0.019409405 0.53500003 10854054
0.036366247 -0.019409407 0.53500003 10788261
0.03698498 -0.018588953 0.53500003 10722726
0.037603714 -0.018588953 0.53500003 10657190
0.038222443 -0.018588953 0.53500003 10591910
0.03698498 -0.017768499 0.53500003 10722726
0.037603714 -0.0177685 0.53500003 10657190
0.038222443 -0.017768499 0.53500003 10591910
0.040491126 -0.017153161 0.53500003 10854314
0.041316103 -0.017153161 0.53500003 10919593
0.040491126 -0.016537821 0.53500003 10854314
0.041316103 -0.016537819 0.53500003 10985386
0.040491126 -0.015922479 0.53500003 10789289
0.041316103 -0.015922479 0.53500003 10920107
0.047503419 -0.015307141 0.53500003 11578550
0.048534643 -0.015307141 0.53500003 11513271
0.049565859 -0.015307141 0.53500003 11513270
0.050390832 -0.015307141 0.53500003 11709880
0.051422052 -0.015512254 0.53500003 11775673
0.052453272 -0.015307141 0.53500003 11841209
0.053484488 -0.015307141 0.53500003 11841209
0.047503419 -0.014486687 0.53500003 11579064
0.048534643 -0.014486686 0.53500003 11513527
0.049565859 -0.014486687 0.53500003 11645113
0.050390832 -0.014486687 0.53500003 11710393
0.051422048 -0.014486686 0.53500003 11710137
0.052453272 -0.014486687 0.53500003 11841209
0.053484496 -0.014486686 0.53500003 11841209
0.0306486 -0.027254557 0.53600001 12038584
0.031475119 -0.027254559 0.53600001 11840689
0.0306486 -0.02643257 0.53600001 12170170
0.031475119 -0.02643257 0.53600001 11710902
0.064742453 -0.020267673 0.53600001 11382455
0.065568976 -0.020267673 0.53600001 11513784
0.064742453 -0.019445686 0.53600001 11447736
0.065568961 -0.019445686 0.53600001 11513526
0.038779363 -0.017217284 0.537 10591912
0.039400406 -0.017217284 0.537 10657705
0.040021453 -0.017217284 0.537 10591912
0.059783343 -0.017185222 0.53600001 11578805
0.060403235 -0.017185222 0.53600001 11578807
0.06102312 -0.017185222 0.53600001 11710139
0.038779363 -0.016599644 0.537 10591912
0.039400406 -0.016599644 0.537 10657705
0.040021453 -0.016599644 0.537 10591912
0.059783343 -0.016568732 0.53600001 11578807
0.060403235 -0.016568732 0.53600001 11578807
0.06102312 -0.016568732 0.53600001 11645113
0.038779363 -0.015982004 0.537 10591910
0.039400406 -0.015982004 0.537 10657703
0.040021453 -0.015982004 0.537 10657703
0.042712647 -0.015364364 0.537 11183022
0.043540705 -0.015364364 0.537 11248815
0.04449277 -0.015335751 0.53600001 11380914
0.045525916 -0.015335752 0.53600001 11512757
0.046559066 -0.015335751 0.53600001 11578550
0.05461761 -0.015335752 0.53600001 11644085
0.055444129 -0.015335752 0.53600001 11513269
0.056547772 -0.015354827 0.53666663 11513268
0.059783343 -0.015952243 0.53600001 11578807
0.060403235 -0.015952243 0.53600001 11513527
0.06102312 -0.015952243 0.53600001 11645113
0.042712647 -0.014540844 0.537 11446451
0.043540705 -0.014540844 0.537 11446451
0.04449277 -0.014513765 0.53600001 11512757
0.045525916 -0.014513766 0.53600001 11578807
0.046559066 -0.014513765 0.53600001 11644600
0.054617606 -0.014513766 0.53600001 11578805
0.055444129 -0.014513766 0.53600001 11513525
0.056547776 -0.014531817 0.53666663 11513525
