# .PCD v0.7 - Point Cloud Data file format
VERSION 0.7
FIELDS x y z rgb
SIZE 4 4 4 4
TYPE F F F U
COUNT 1 1 1 1
WIDTH 1217
HEIGHT 1
VIEWPOINT 0 0 0 1 0 0 0
POINTS 1217
DATA ascii
0.3453505 -0.12637505 0.85700005 920584
0.34336826 -0.12538937 0.85700005 1051400
0.3443594 -0.12538937 0.85700005 1051400
0.3453505 -0.12538937 0.85700005 1051400
0.34634161 -0.12538937 0.85700005 920584
0.34766316 -0.12538937 0.85700005 920582
0.34336826 -0.12440367 0.85700005 1051400
0.34435937 -0.12440367 0.85700005 1051400
0.3453505 -0.12440367 0.85700005 1051400
0.34634164 -0.12440367 0.85700005 920584
0.34766316 -0.12440368 0.85700005 920583
0.34336826 -0.12341798 0.85700005 1051400
0.3443594 -0.12341798 0.85700005 1051400
0.3453505 -0.12341798 0.85700005 1051400
0.34634161 -0.11947521 0.85700005 855304
0.34766316 -0.11947521 0.85700005 920584
0.34634161 -0.11848951 0.85700005 1313290
0.34766316 -0.11848951 0.85700005 1051398
0.34634161 -0.11750381 0.85700005 1771533
0.34766316 -0.11750381 0.85700005 1773062
0.34634161 -0.11651812 0.85700005 2232342
0.34766313 -0.11651812 0.85700005 1575683
0.34865427 -0.11651812 0.85700005 1314821
0.34964541 -0.11651812 0.85700005 1314571
0.35063651 -0.11651812 0.85700005 1314322
0.34634161 -0.11553243 0.85700005 5259078
0.34766316 -0.11553243 0.85700005 3944229
0.34865427 -0.11553243 0.85700005 2564887
0.34964538 -0.11553243 0.85700005 1577743
0.35063651 -0.11553243 0.85700005 1248530
0.34634161 -0.11454674 0.85700005 7038049
0.34766313 -0.11454673 0.85700005 5919319
0.34865427 -0.11454673 0.85700005 5130317
0.34964541 -0.11454673 0.85700005 3946043
0.35063651 -0.11454673 0.85700005 3222320
0.34634161 -0.11356104 0.85700005 7368546
0.34766316 -0.11356104 0.85700005 7170399
0.34865427 -0.11356104 0.85700005 6907227
0.34964538 -0.11356104 0.85700005 7038814
0.35063651 -0.11356104 0.85700005 6972766
0.34634161 -0.11257534 0.85700005 8881790
0.34766316 -0.11257534 0.85700005 8354421
0.34865427 -0.11290392 0.85700005 8091501
0.34964538 -0.11290392 0.85700005 8222832
0.35063651 -0.11290392 0.85700005 7630696
0.34634161 -0.11158966 0.85700005 10460571
0.34766316 -0.11158966 0.85700005 10459801
0.34634161 -0.11060396 0.85700005 11117734
0.34766313 -0.11060396 0.85700005 11249319
0.4286052 -0.089575827 0.85700005 9736851
0.4295963 -0.089575835 0.85700005 9537936
0.43058744 -0.089575827 0.85700005 9143180
0.43157858 -0.089575835 0.85700005 8485250
0.43256971 -0.089575827 0.85700005 8222078
0.43323046 -0.089575827 0.85700005 8287867
0.4286052 -0.088590138 0.85700005 10592159
0.4295963 -0.088590138 0.85700005 10657182
0.43058744 -0.088590138 0.85700005 10590875
0.43157858 -0.088590138 0.85700005 10130324
0.43256971 -0.088590138 0.85700005 9669773
0.43323046 -0.088590138 0.85700005 9669773
0.42563182 -0.087275878 0.85700005 10657182
0.42662296 -0.087275878 0.85700005 10526366
0.42761409 -0.087275878 0.85700005 10592159
0.4286052 -0.087604448 0.85700005 10592159
0.4295963 -0.087604448 0.85700005 10657439
0.43058744 -0.087604448 0.85700005 10722718
0.43157858 -0.087604441 0.85700005 10722718
0.43256971 -0.087604448 0.85700005 10788511
0.43323046 -0.087604448 0.85700005 10459546
0.42563182 -0.086618751 0.85700005 10657182
0.42662296 -0.086618751 0.85700005 10526366
0.42761409 -0.086618751 0.85700005 10592159
0.4286052 -0.086618751 0.85700005 10592159
0.4295963 -0.086618751 0.85700005 10657952
0.43058744 -0.086618751 0.85700005 10788768
0.43157858 -0.086618751 0.85700005 10722975
0.43256971 -0.086618751 0.85700005 10591389
0.43323046 -0.086618751 0.85700005 10591389
0.42563182 -0.085633054 0.85700005 10657180
0.42662296 -0.085633054 0.85700005 10526366
0.42761409 -0.085633054 0.85700005 10592159
0.4286052 -0.085633054 0.85700005 10592159
0.4295963 -0.085633054 0.85700005 10657952
0.43058744 -0.085633054 0.85700005 10854561
0.43157858 -0.085633054 0.85700005 10722975
0.43256971 -0.085633054 0.85700005 10722975
0.43323046 -0.085633054 0.85700005 10591389
0.42563182 -0.084647365 0.85700005 10657180
0.42662296 -0.084647365 0.85700005 10657182
0.42761409 -0.084647365 0.85700005 10722975
0.4286052 -0.084647365 0.85700005 10722975
0.4295963 -0.084647365 0.85700005 10722975
0.43058744 -0.084647365 0.85700005 10788768
0.43157858 -0.084647365 0.85700005 10722975
0.43256971 -0.084647365 0.85700005 10722975
0.43323046 -0.084647365 0.85700005 10722975
0.33583063 -0.15546995 0.85800004 525826
0.33649215 -0.15546995 0.85800004 460033
0.33748442 -0.15546995 0.85800004 262656
0.33847672 -0.15546995 0.85800004 196864
0.33946902 -0.15546995 0.85800004 131072
0.34046128 -0.15546995 0.85800004 196864
0.33583063 -0.15448311 0.85800004 525824
0.33649215 -0.15448311 0.85800004 460032
0.33748442 -0.15448311 0.85800004 196864
0.33847672 -0.15448311 0.85800004 131072
0.33946902 -0.15448311 0.85800004 196864
0.34046128 -0.15448311 0.85800004 328448
0.33351529 -0.15316731 0.85800004 657410
0.33450758 -0.15316731 0.85800004 525824
0.33549988 -0.15349627 0.85800004 525824
0.33649215 -0.15382521 0.85800004 394240
0.33748442 -0.15382521 0.85800004 131072
0.33847672 -0.15382521 0.85800004 131072
0.33946902 -0.15382521 0.85800004 196864
0.34046128 -0.15382521 0.85800004 328448
0.33351529 -0.15250942 0.85800004 723203
0.33450758 -0.15250942 0.85800004 591617
0.33516911 -0.15250942 0.85800004 657410
0.33351529 -0.15152258 0.85800004 723205
0.33450758 -0.15152258 0.85800004 591617
0.33516911 -0.15152258 0.85800004 525824
0.33053845 -0.15053573 0.85800004 592132
0.33153075 -0.15053573 0.85800004 591876
0.33252302 -0.15053573 0.85800004 788998
0.33053845 -0.14954889 0.85800004 723461
0.33153075 -0.14954889 0.85800004 723461
0.33252302 -0.14954889 0.85800004 788998
0.33053845 -0.14856204 0.85800004 788996
0.33153075 -0.14856204 0.85800004 723204
0.33252302 -0.14856204 0.85800004 657412
0.32756162 -0.14527255 0.85800004 789002
0.32855389 -0.14527255 0.85800004 789002
0.32921541 -0.14527255 0.85800004 789002
0.32756162 -0.14461467 0.85800004 789002
0.32855389 -0.14461467 0.85800004 789002
0.32921541 -0.14461467 0.85800004 789002
0.32756162 -0.14362782 0.85800004 789002
0.32855389 -0.14362782 0.85800004 789002
0.32921541 -0.14362782 0.85800004 789002
0.32756162 -0.14264098 0.85800004 788994
0.32855389 -0.14264098 0.85800004 788994
0.32921541 -0.14264098 0.85800004 788996
0.32756162 -0.14165413 0.85800004 788996
0.32855389 -0.14165413 0.85800004 788997
0.32921541 -0.14165413 0.85800004 854791
0.32756162 -0.14033833 0.85800004 854791
0.32855389 -0.14033833 0.85800004 854793
0.32921541 -0.14033833 0.85800004 854793
0.32756162 -0.1393515 0.85800004 854791
0.32855389 -0.1393515 0.85800004 854793
0.32921541 -0.1393515 0.85800004 854793
0.32756162 -0.13836466 0.85800004 788998
0.32855389 -0.13836464 0.85800004 789000
0.32921541 -0.13836464 0.85800004 789000
0.32756162 -0.13737781 0.85800004 788998
0.32855389 -0.13737781 0.85800004 789000
0.32921541 -0.13737781 0.85800004 789000
0.32756162 -0.13671991 0.85800004 788998
0.32855389 -0.13671991 0.85800004 789000
0.32921541 -0.13671991 0.85800004 789000
0.33053845 -0.13606201 0.85800004 526337
0.33153075 -0.13606201 0.85800004 394752
0.33252302 -0.13606201 0.85800004 131584
0.33053845 -0.13540412 0.85800004 526337
0.33153075 -0.13540412 0.85800004 394752
0.33252302 -0.13540412 0.85800004 131584
0.33053845 -0.13441727 0.85800004 460550
0.33153075 -0.13441728 0.85800004 263428
0.33252302 -0.13441727 0.85800004 257
0.33053845 -0.13343044 0.85800004 460550
0.33153075 -0.13343044 0.85800004 263172
0.33252302 -0.13343044 0.85800004 257
0.33053845 -0.13244358 0.85800004 328962
0.33153075 -0.13244358 0.85800004 131841
0.33252302 -0.13244358 0.85800004 256
0.33053845 -0.13145675 0.85800004 328960
0.33153075 -0.13145675 0.85800004 197632
0.33252302 -0.13145675 0.85800004 197632
0.33053845 -0.13046989 0.85800004 328448
0.33153075 -0.13046989 0.85800004 262912
0.33252302 -0.13046989 0.85800004 263168
0.33351529 -0.1304699 0.85800004 394752
0.33450758 -0.13046989 0.85800004 526336
0.33549988 -0.13046989 0.85800004 723458
0.33649215 -0.13046989 0.85800004 788996
0.33748442 -0.13046989 0.85800004 788996
0.33053845 -0.12948306 0.85800004 394240
0.33153075 -0.12948306 0.85800004 328704
0.33252302 -0.12948306 0.85800004 328960
0.33351529 -0.12948306 0.85800004 460544
0.33450758 -0.12948306 0.85800004 592130
0.33549988 -0.12948306 0.85800004 789253
0.33649215 -0.12948306 0.85800004 854789
0.33748442 -0.12948306 0.85800004 854789
0.33053845 -0.12882516 0.85800004 394240
0.33153075 -0.12882516 0.85800004 394496
0.33252302 -0.12882516 0.85800004 460544
0.33351529 -0.12882516 0.85800004 526337
0.33450758 -0.12882516 0.85800004 592130
0.33561012 -0.12860586 0.85800004 854790
0.33649215 -0.1284962 0.85800004 920583
0.33748442 -0.1284962 0.85800004 920582
0.33847672 -0.12816726 0.85800004 986375
0.33946902 -0.12816726 0.85800004 920582
0.34046128 -0.12816726 0.85800004 920582
0.34145358 -0.12816726 0.85800004 920580
0.34244588 -0.12816726 0.85800004 920580
0.3431074 -0.12816726 0.85800004 920580
0.33583063 -0.12750937 0.85800004 920584
0.33649215 -0.12750937 0.85800004 920584
0.33748442 -0.12750937 0.85800004 920582
0.33847672 -0.12750937 0.85800004 986375
0.33946902 -0.12750937 0.85800004 920582
0.34046128 -0.12750937 0.85800004 920582
0.34145358 -0.12750937 0.85800004 920580
0.34244588 -0.12750937 0.85800004 920580
0.3431074 -0.12750937 0.85800004 920580
0.33583063 -0.12652251 0.85800004 920586
0.33649215 -0.12652251 0.85800004 986379
0.33748442 -0.12652251 0.85800004 986375
0.33847672 -0.12652251 0.85800004 986375
0.33946899 -0.12652251 0.85800004 985862
0.34046128 -0.12652251 0.85800004 1051398
0.34145358 -0.12652253 0.85800004 920582
0.34244588 -0.12652251 0.85800004 920582
0.3431074 -0.12652251 0.85800004 920582
0.33847672 -0.12553568 0.85800004 1051400
0.33946902 -0.12553568 0.85800004 1116936
0.34046128 -0.12553568 0.85800004 1182472
0.34145358 -0.12553568 0.85800004 1051400
0.34244588 -0.12553568 0.85800004 1051400
0.3431074 -0.12553568 0.85800004 1051400
0.33847672 -0.12454884 0.85800004 1051400
0.33946902 -0.12454884 0.85800004 1051400
0.34046128 -0.12454884 0.85800004 1116936
0.34145358 -0.12454884 0.85800004 1051400
0.34244588 -0.12454884 0.85800004 1051400
0.3431074 -0.12454884 0.85800004 1051400
0.33847672 -0.12356199 0.85800004 1051400
0.33946902 -0.12356199 0.85800004 1051400
0.34046128 -0.12356199 0.85800004 1051400
0.34145358 -0.12356199 0.85800004 1051400
0.34244588 -0.12356199 0.85800004 1051400
0.3431074 -0.12356199 0.85800004 1051400
0.34145361 -0.12257515 0.85800004 920584
0.34244588 -0.12257515 0.85800004 855304
0.34343815 -0.12257514 0.85800004 855304
0.34443045 -0.12257515 0.85800004 855304
0.34542274 -0.12257515 0.85800004 855304
0.34145358 -0.1215883 0.85800004 920584
0.34244588 -0.1215883 0.85800004 855304
0.34343815 -0.1215883 0.85800004 855304
0.34443045 -0.1215883 0.85800004 855304
0.34542274 -0.1215883 0.85800004 855304
0.34145361 -0.12060146 0.85800004 986376
0.34244588 -0.12060146 0.85800004 920839
0.34343818 -0.12060145 0.85800004 920838
0.34443045 -0.12060146 0.85800004 920838
0.34542271 -0.12060145 0.85800004 855046
0.34376892 -0.11961462 0.85800004 1052166
0.34443045 -0.11961462 0.85800004 1052166
0.34542274 -0.11961462 0.85800004 920580
0.34376892 -0.11862777 0.85800004 1576464
0.34443045 -0.11862777 0.85800004 1510671
0.34542271 -0.11862777 0.85800004 1379083
0.34376892 -0.11764093 0.85800004 2104092
0.34443045 -0.11764093 0.85800004 2038299
0.34542274 -0.11764093 0.85800004 1705739
0.34376892 -0.11665408 0.85800004 4079162
0.34443045 -0.11665408 0.85800004 3355438
0.34542274 -0.11665408 0.85800004 2430485
0.34376892 -0.1153383 0.85800004 6908254
0.34443045 -0.1153383 0.85800004 6908511
0.34542274 -0.1153383 0.85800004 6708566
0.34376892 -0.11435144 0.85800004 8617843
0.34443045 -0.11435144 0.85800004 8552050
0.34542274 -0.11435144 0.85800004 7630182
0.34376892 -0.11336461 0.85800004 9934734
0.34443045 -0.11336461 0.85800004 9408390
0.34542274 -0.1133646 0.85800004 8553335
0.34376892 -0.11237776 0.85800004 10855844
0.34443045 -0.11237776 0.85800004 10592672
0.34542274 -0.11237776 0.85800004 10263705
0.33396119 -0.15616207 0.86000001 460032
0.33462426 -0.15616207 0.86000001 460032
0.33561885 -0.15616207 0.86000001 460033
0.33396119 -0.15550265 0.86000001 525824
0.33462426 -0.15550265 0.86000001 525824
0.33561885 -0.15550265 0.86000001 525826
0.33396119 -0.15451351 0.86000001 591617
0.33462426 -0.15451351 0.86000001 591617
0.33561885 -0.15451351 0.86000001 525824
0.3279936 -0.13637918 0.86000001 788996
0.32865667 -0.13637918 0.86000001 788998
0.3296513 -0.13637918 0.86000001 788998
0.33064586 -0.13637918 0.86000001 657412
0.3279936 -0.13539004 0.86000001 788996
0.32865667 -0.13539004 0.86000001 788997
0.3296513 -0.13539004 0.86000001 788997
0.33064586 -0.13539004 0.86000001 657412
0.3279936 -0.1344009 0.86000001 788996
0.32865667 -0.1344009 0.86000001 788996
0.3296513 -0.1344009 0.86000001 788997
0.33064586 -0.1344009 0.86000001 657412
0.3279936 -0.13341175 0.86000001 854789
0.32865667 -0.13341175 0.86000001 854789
0.3296513 -0.13341175 0.86000001 723204
0.33064586 -0.13341175 0.86000001 525826
0.3279936 -0.13242261 0.86000001 854791
0.32865667 -0.13242261 0.86000001 854791
0.3296513 -0.13242261 0.86000001 657412
0.33064586 -0.13242261 0.86000001 525826
0.3279936 -0.13143346 0.86000001 854534
0.32865667 -0.13143346 0.86000001 854534
0.3296513 -0.13143346 0.86000001 722948
0.33064586 -0.13143346 0.86000001 525569
0.3279936 -0.13044432 0.86000001 919814
0.32865667 -0.13044432 0.86000001 919814
0.3296513 -0.13044432 0.86000001 722435
0.33064586 -0.13044432 0.86000001 590849
0.3279936 -0.12945518 0.86000001 919816
0.32865667 -0.12945518 0.86000001 919816
0.3296513 -0.12945518 0.86000001 656644
0.33064586 -0.12945518 0.86000001 525058
0.3279936 -0.12846602 0.86000001 788230
0.32865667 -0.12846602 0.86000001 788230
0.3296513 -0.12846602 0.86000001 656644
0.33064586 -0.12846602 0.86000001 525058
0.33164048 -0.12846602 0.86000001 328449
0.33263507 -0.12846602 0.86000001 394755
0.33362967 -0.12846602 0.86000001 460548
0.33462426 -0.12846602 0.86000001 592134
0.33561885 -0.12846602 0.86000001 789511
0.3279936 -0.12747689 0.86000001 788230
0.32865667 -0.12747689 0.86000001 788230
0.3296513 -0.12747689 0.86000001 590851
0.33064586 -0.12747689 0.86000001 525058
0.33164048 -0.12747689 0.86000001 394242
0.33263507 -0.12747689 0.86000001 526084
0.33362967 -0.12747689 0.86000001 657671
0.33462426 -0.12747689 0.86000001 657672
0.33561885 -0.12747689 0.86000001 789512
0.3279936 -0.12648775 0.86000001 722437
0.32865667 -0.12648775 0.86000001 722437
0.3296513 -0.12648775 0.86000001 590851
0.33064586 -0.12648775 0.86000001 525058
0.33164048 -0.12648775 0.86000001 394242
0.33263507 -0.12648775 0.86000001 591621
0.33362967 -0.12648775 0.86000001 789001
0.33462426 -0.12648775 0.86000001 789002
0.33561885 -0.12648775 0.86000001 789513
0.33164048 -0.12549859 0.86000001 590851
0.33263507 -0.12549859 0.86000001 657414
0.33362964 -0.12549859 0.86000001 789001
0.33462426 -0.12549859 0.86000001 789003
0.33561885 -0.12549859 0.86000001 854796
0.33661345 -0.12549859 0.86000001 855308
0.33760807 -0.12549859 0.86000001 921099
0.33860263 -0.12549859 0.86000001 921097
0.33164048 -0.12450945 0.86000001 722437
0.33263507 -0.12450945 0.86000001 788230
0.33362967 -0.12450945 0.86000001 919817
0.33462426 -0.12450945 0.86000001 919819
0.33561885 -0.12450945 0.86000001 854796
0.33661345 -0.12450945 0.86000001 855308
0.33760804 -0.12450945 0.86000001 921099
0.33860263 -0.12450945 0.86000001 921097
0.33164048 -0.12352031 0.86000001 985093
0.33263507 -0.12352031 0.86000001 1050630
0.33362967 -0.12352031 0.86000001 1116424
0.33462426 -0.12352031 0.86000001 1116426
0.33561885 -0.12352031 0.86000001 985867
0.33661345 -0.12352031 0.86000001 920843
0.33760804 -0.12352031 0.86000001 855306
0.33860263 -0.12352031 0.86000001 855304
0.33959723 -0.1231906 0.86000001 1051400
0.34059185 -0.1231906 0.86000001 1051400
0.34125489 -0.1231906 0.86000001 1051400
0.33661345 -0.12253117 0.86000001 986379
0.33760804 -0.12253117 0.86000001 920842
0.33860263 -0.12253117 0.86000001 921097
0.33959723 -0.12253117 0.86000001 1051400
0.34059185 -0.12253117 0.86000001 1051400
0.34125489 -0.12253117 0.86000001 1051400
0.33661345 -0.12154202 0.86000001 1117191
0.33760804 -0.12154202 0.86000001 1051657
0.33860263 -0.12154202 0.86000001 1052172
0.33959723 -0.12154202 0.86000001 1051402
0.34059185 -0.12154202 0.86000001 1117193
0.34125489 -0.12154202 0.86000001 1051400
0.33661345 -0.12055288 0.86000001 1577228
0.33760804 -0.12055288 0.86000001 1445901
0.33860263 -0.12055288 0.86000001 1248781
0.33959723 -0.12055288 0.86000001 1248267
0.34059185 -0.12055288 0.86000001 1314058
0.34125489 -0.12055288 0.86000001 1314058
0.33959723 -0.11956373 0.86000001 1577233
0.34059185 -0.11956373 0.86000001 1708814
0.34158641 -0.11956374 0.86000001 1445644
0.34258103 -0.11956373 0.86000001 1314316
0.34357563 -0.11956373 0.86000001 1248522
0.33959723 -0.11857459 0.86000001 3353645
0.34059185 -0.11857459 0.86000001 2366742
0.34158641 -0.11857459 0.86000001 1905682
0.34258103 -0.11857459 0.86000001 1839636
0.34357563 -0.11857459 0.86000001 1642257
0.33959723 -0.11791516 0.86000001 5327435
0.34059185 -0.11791516 0.86000001 3945774
0.34169695 -0.11769535 0.85999995 4009518
0.34258103 -0.11758545 0.86000001 4074287
0.34357563 -0.11758545 0.86000001 3156780
0.34191796 -0.1165963 0.86000001 7629155
0.34258103 -0.1165963 0.86000001 6905432
0.34357563 -0.1165963 0.86000001 5330508
0.34191796 -0.11560716 0.86000001 8748925
0.34258103 -0.11560716 0.86000001 8354168
0.34357563 -0.11560716 0.86000001 7303787
0.34191796 -0.11461801 0.86000001 10395040
0.34258103 -0.11461801 0.86000001 9473938
0.34357563 -0.11461801 0.86000001 9079431
0.34191796 -0.11362886 0.86000001 11117734
0.34258103 -0.11362886 0.86000001 11051941
0.34357563 -0.11362887 0.86000001 10459803
0.34191796 -0.11263973 0.86000001 11249066
0.34258103 -0.11263973 0.86000001 11051687
0.34357563 -0.11263973 0.86000001 11117734
0.33169419 -0.15337276 0.86100006 525824
0.33235803 -0.15337276 0.86100006 525824
0.33335379 -0.15337276 0.86100006 591617
0.33169419 -0.15238248 0.86100006 657412
0.33235803 -0.15238248 0.86100006 657412
0.33335379 -0.15238248 0.86100006 723205
0.33169419 -0.15172228 0.86100006 657412
0.33235803 -0.15172228 0.86100006 657412
0.33335379 -0.15172228 0.86100006 723205
0.3293708 -0.1484213 0.86100006 789248
0.33036652 -0.1484213 0.86100006 789248
0.3293708 -0.14743102 0.86100006 788993
0.33036652 -0.14743102 0.86100006 788994
0.3293708 -0.14644071 0.86100006 788994
0.33036652 -0.14644071 0.86100006 788996
0.32571968 -0.14247954 0.86100006 788996
0.3263835 -0.14247954 0.86100006 788996
0.32737929 -0.14247954 0.86100006 788995
0.32571968 -0.14148924 0.86100006 919812
0.3263835 -0.14148924 0.86100006 919812
0.32737929 -0.14148924 0.86100006 854276
0.32571968 -0.14049894 0.86100006 919812
0.3263835 -0.14049894 0.86100006 919812
0.32737929 -0.14049894 0.86100006 854276
0.32571968 -0.13983874 0.86100006 919812
0.3263835 -0.13983874 0.86100006 919812
0.32737929 -0.13983874 0.86100006 854276
0.32571968 -0.13719796 0.86100006 919812
0.3263835 -0.13719796 0.86100006 919812
0.32737929 -0.13719796 0.86100006 854276
0.32571968 -0.13653776 0.86100006 788998
0.3263835 -0.13653776 0.86100006 788996
0.32737929 -0.13653776 0.86100006 788996
0.32571968 -0.13554746 0.86100006 788998
0.3263835 -0.13554746 0.86100006 788996
0.32737929 -0.13554746 0.86100006 788996
0.32571968 -0.13455717 0.86100006 788998
0.3263835 -0.13455717 0.86100006 788996
0.32737929 -0.13455717 0.86100006 788996
0.32571968 -0.12663482 0.86100006 1051400
0.3263835 -0.12663482 0.86100006 985607
0.32737929 -0.12663482 0.86100006 854022
0.32571968 -0.12564453 0.86100006 1182472
0.3263835 -0.12564453 0.86100006 1051398
0.32737929 -0.12564452 0.86100006 854020
0.32837501 -0.12564453 0.86100006 722435
0.3293708 -0.12564453 0.86100006 656644
0.33036652 -0.12564453 0.86100006 590853
0.33103037 -0.12564453 0.86100006 590853
0.32571968 -0.12465423 0.86100006 1248515
0.3263835 -0.12465423 0.86100006 1051396
0.32737929 -0.12465423 0.86100006 854018
0.32837501 -0.12465423 0.86100006 656640
0.3293708 -0.12465423 0.86100006 590851
0.33036652 -0.12465423 0.86100006 590851
0.33103037 -0.12465423 0.86100006 656644
0.32571968 -0.12366394 0.86100006 1380101
0.3263835 -0.12366394 0.86100006 1051396
0.32737929 -0.12366395 0.86100006 656641
0.32837501 -0.12366394 0.86100006 590848
0.3293708 -0.12366395 0.86100006 722437
0.33036652 -0.12366394 0.86100006 787973
0.33103037 -0.12366394 0.86100006 853766
0.3293708 -0.12234355 0.86100006 657158
0.33036652 -0.12234354 0.86100006 525573
0.33136228 -0.12234355 0.86100006 1050630
0.33235803 -0.12234354 0.86100006 1313287
0.33335379 -0.12234354 0.86100006 1378822
0.33434954 -0.12234354 0.86100006 1378826
0.3353453 -0.12234354 0.86100006 1248010
0.33634105 -0.12234354 0.86100006 1182474
0.3293708 -0.12135325 0.86100006 3354929
0.33036652 -0.12135325 0.86100006 1906711
0.33136228 -0.12135325 0.86100006 2103575
0.33235803 -0.12135325 0.86100006 1971218
0.33335379 -0.12135325 0.86100006 1773837
0.33434954 -0.12135325 0.86100006 1510669
0.3353453 -0.12135325 0.86100006 1313803
0.33634105 -0.12135325 0.86100006 1248267
0.3293708 -0.12069305 0.86100006 5328720
0.33036652 -0.12069305 0.86100006 4473411
0.3314729 -0.12047299 0.86100006 4209210
0.33235803 -0.12036295 0.86100006 3682608
0.33335379 -0.12036295 0.86100006 3484457
0.33434954 -0.12036295 0.86100006 2760734
0.3353453 -0.12069305 0.86100006 1511182
0.33634105 -0.12069305 0.86100006 985609
0.33733678 -0.12003285 0.86100006 1906193
0.33866447 -0.12003285 0.86100006 1182988
0.33169419 -0.11937266 0.86100006 7170153
0.33235803 -0.11937266 0.86100006 6643809
0.33335379 -0.11937266 0.86100006 6446428
0.33434954 -0.11937266 0.86100006 5459533
0.33733678 -0.11937266 0.86100006 2695707
0.33866447 -0.11937266 0.86100006 1971992
0.33169419 -0.11838236 0.86100006 8880771
0.33235803 -0.11838236 0.86100006 8617599
0.33335379 -0.11838236 0.86100006 8157046
0.33434954 -0.11838236 0.86100006 7959667
0.33733678 -0.11838236 0.86100006 6248529
0.33866447 -0.11838236 0.86100006 5064263
0.33966023 -0.11739207 0.86100006 7169639
0.34065598 -0.11739207 0.86100006 6314326
0.34165174 -0.11739207 0.86100006 5656392
0.33966023 -0.11640178 0.86100006 8946051
0.34065598 -0.11640178 0.86100006 8288118
0.34165174 -0.11640178 0.86100006 8024944
0.33966023 -0.11541148 0.86100006 10262171
0.34065598 -0.11541148 0.86100006 9933461
0.34165174 -0.11541148 0.86100006 9407116
0.33966023 -0.11442119 0.86100006 11051688
0.34065598 -0.11442119 0.86100006 10985894
0.34165174 -0.11442119 0.86100006 10788514
0.33966023 -0.11343089 0.86100006 11249068
0.34065598 -0.11343089 0.86100006 11249067
0.34165174 -0.11343089 0.86100006 11183273
0.33966023 -0.1127707 0.86100006 11380654
0.34065598 -0.1127707 0.86100006 11314861
0.34165174 -0.1127707 0.86100006 11249068
0.32980317 -0.15141298 0.86300004 461058
0.33046854 -0.15141298 0.86300004 461058
0.33146662 -0.15141298 0.86300004 526594
0.32980317 -0.15042038 0.86300004 592386
0.33046854 -0.15042038 0.86300004 592386
0.33146662 -0.15042038 0.86300004 658179
0.32980317 -0.14942779 0.86300004 723968
0.33046854 -0.14942779 0.86300004 723968
0.33146662 -0.14942779 0.86300004 723714
0.32647628 -0.14843519 0.86300004 460035
0.32747436 -0.14843519 0.86300004 591619
0.32847241 -0.14843519 0.86300004 657408
0.32913777 -0.14843519 0.86300004 788994
0.32647628 -0.14744261 0.86300004 591621
0.32747436 -0.14744261 0.86300004 723205
0.32847241 -0.14744261 0.86300004 788994
0.32913777 -0.14744261 0.86300004 788994
0.32647628 -0.14645001 0.86300004 657414
0.32747436 -0.14645001 0.86300004 788999
0.32847241 -0.14645001 0.86300004 788998
0.32913777 -0.14678088 0.86300004 788994
0.32647628 -0.14545742 0.86300004 789000
0.32747436 -0.14545742 0.86300004 789000
0.32847241 -0.14545742 0.86300004 789002
0.32647628 -0.14446482 0.86300004 789000
0.32747436 -0.14446482 0.86300004 789000
0.32847241 -0.14446482 0.86300004 789002
0.32647628 -0.14347222 0.86300004 788996
0.32747436 -0.14347222 0.86300004 788996
0.32847241 -0.14347222 0.86300004 788994
0.32647628 -0.13950184 0.86300004 919812
0.32747436 -0.13950184 0.86300004 919812
0.32847241 -0.13950184 0.86300004 788996
0.32647628 -0.13850924 0.86300004 919812
0.32747436 -0.13850924 0.86300004 919812
0.32847241 -0.13850924 0.86300004 788996
0.32647628 -0.13420801 0.86300004 789000
0.32747436 -0.13420801 0.86300004 788998
0.32847241 -0.13420801 0.86300004 788996
0.32647628 -0.13354628 0.86300004 789000
0.32747436 -0.13354628 0.86300004 788998
0.32847241 -0.13354628 0.86300004 788996
0.32647628 -0.13255368 0.86300004 789000
0.32747436 -0.13255368 0.86300004 788998
0.32847241 -0.13255368 0.86300004 788998
0.33579156 -0.12031168 0.86300004 3023906
0.33645692 -0.12031168 0.86300004 2367262
0.33712232 -0.12031168 0.86300004 2762020
0.33579156 -0.11964995 0.86300004 4867396
0.33645692 -0.11964995 0.86300004 4406845
0.33712232 -0.11964995 0.86300004 3814708
0.33579156 -0.11865735 0.86300004 7630702
0.33645692 -0.11865735 0.86300004 7564909
0.33712232 -0.11865735 0.86300004 7235944
0.33778769 -0.11733389 0.86300004 9538181
0.33845308 -0.11733389 0.86300004 8748665
0.33945113 -0.11733389 0.86300004 8419706
0.33778769 -0.1163413 0.86300004 10854043
0.33845308 -0.1163413 0.86300004 10327699
0.33945113 -0.1163413 0.86300004 10327704
0.33778769 -0.11567957 0.86300004 11117734
0.33845308 -0.11567957 0.86300004 11117734
0.33945113 -0.11567957 0.86300004 11117480
0.33284992 -0.15655716 0.86400002 65536
0.33351606 -0.15655716 0.86400002 196864
0.33451527 -0.15655716 0.86400002 394240
0.33284992 -0.15556341 0.86400002 328448
0.33351606 -0.15556341 0.86400002 394240
0.33451527 -0.15556341 0.86400002 525824
0.33051839 -0.15423842 0.86400002 65792
0.33151761 -0.15423842 0.86400002 394240
0.33251685 -0.15456966 0.86400002 394240
0.33351606 -0.15490091 0.86400002 460032
0.33451527 -0.15490091 0.86400002 525824
0.33051839 -0.15357593 0.86400002 197376
0.33151761 -0.15357593 0.86400002 525826
0.33218375 -0.15357593 0.86400002 591619
0.33051839 -0.15258217 0.86400002 329218
0.33151761 -0.15258217 0.86400002 526339
0.33218375 -0.15258217 0.86400002 526339
0.32452306 -0.14264473 0.86400002 788998
0.32552227 -0.14264473 0.86400002 854278
0.32618842 -0.14264473 0.86400002 854276
0.32452306 -0.14165097 0.86400002 788998
0.32552227 -0.14165097 0.86400002 919814
0.32618842 -0.14165097 0.86400002 919812
0.32452306 -0.14065723 0.86400002 788998
0.32552227 -0.14065725 0.86400002 919814
0.32618842 -0.14065725 0.86400002 919812
0.32452306 -0.13933225 0.86400002 788998
0.32552227 -0.13933223 0.86400002 919814
0.32618842 -0.13933223 0.86400002 919812
0.32452306 -0.13833849 0.86400002 788998
0.32552227 -0.13833849 0.86400002 919814
0.32618842 -0.13833849 0.86400002 919812
0.32452306 -0.137676 0.86400002 788998
0.32552227 -0.137676 0.86400002 919814
0.32618842 -0.137676 0.86400002 919812
0.33551452 -0.11746985 0.86400002 10065044
0.33651373 -0.11746985 0.86400002 9933458
0.33751294 -0.11746985 0.86400002 9801872
0.33551452 -0.1164761 0.86400002 10986147
0.33651373 -0.1164761 0.86400002 10722975
0.33751294 -0.1164761 0.86400002 10657182
0.33551452 -0.11581361 0.86400002 11117734
0.33651373 -0.11581361 0.86400002 10986148
0.33751294 -0.11581361 0.86400002 10986148
0.33094963 -0.15725157 0.86600006 0
0.33161733 -0.15725157 0.86600006 0
0.33261886 -0.15725157 0.86600006 0
0.33094963 -0.15658754 0.86600006 0
0.33161733 -0.15658754 0.86600006 0
0.33261886 -0.15658754 0.86600006 65536
0.33094963 -0.15559149 0.86600006 0
0.33161733 -0.15559149 0.86600006 131072
0.33261886 -0.1555915 0.86600006 327680
0.32861274 -0.1516073 0.86600006 0
0.32961425 -0.1516073 0.86600006 197890
0.33028194 -0.1516073 0.86600006 395269
0.32861274 -0.15061127 0.86600006 131584
0.32961425 -0.15061127 0.86600006 526337
0.33028194 -0.15061127 0.86600006 723716
0.32861274 -0.14994724 0.86600006 328960
0.32961425 -0.14994724 0.86600006 592130
0.33028194 -0.14994724 0.86600006 723716
0.32494044 -0.14662708 0.86600006 460033
0.32560813 -0.14662708 0.86600006 460033
0.32660967 -0.14662708 0.86600006 657413
0.32494044 -0.14563105 0.86600006 591619
0.32560813 -0.14563105 0.86600006 657412
0.32660967 -0.14563105 0.86600006 723206
0.32494044 -0.14463499 0.86600006 657412
0.32560813 -0.14463499 0.86600006 657412
0.32660967 -0.14463499 0.86600006 788999
0.32494044 -0.14397097 0.86600006 657412
0.32560813 -0.14397097 0.86600006 657412
0.32660967 -0.14397097 0.86600006 788997
0.32865795 -0.15444157 0.86700004 0
0.32966065 -0.15444157 0.86700004 0
0.33066335 -0.15444157 0.86700004 0
0.32865795 -0.15344436 0.86700004 0
0.32966065 -0.15344436 0.86700004 0
0.33066335 -0.15344436 0.86700004 256
0.32865795 -0.15277958 0.86700004 0
0.32966065 -0.15277958 0.86700004 0
0.33066335 -0.15277958 0.86700004 263685
0.32564989 -0.14945559 0.86700004 0
0.32665256 -0.14945559 0.86700004 65536
0.32732102 -0.14945559 0.86700004 196864
0.32564989 -0.14845839 0.86700004 65536
0.32665256 -0.14845839 0.86700004 262656
0.32732102 -0.14845839 0.86700004 394242
0.32564989 -0.14746119 0.86700004 328448
0.32665256 -0.14746119 0.86700004 460033
0.32732102 -0.14746119 0.86700004 657414
0.32937163 -0.15761474 0.86800003 0
0.33037549 -0.15761474 0.86800003 0
0.33104473 -0.15761474 0.86800003 0
0.32937163 -0.15661639 0.86800003 0
0.33037549 -0.15661639 0.86800003 0
0.33104473 -0.15661639 0.86800003 0
0.32937163 -0.15561804 0.86800003 0
0.33037549 -0.15561804 0.86800003 0
0.33104473 -0.15561804 0.86800003 0
0.32569087 -0.15229023 0.86800003 0
0.32636011 -0.15229023 0.86800003 0
0.32736394 -0.15229023 0.86800003 0
0.3283678 -0.15229023 0.86800003 0
0.32569087 -0.15162466 0.86800003 0
0.32636011 -0.15162466 0.86800003 0
0.32736394 -0.15162466 0.86800003 0
0.3283678 -0.15162466 0.86800003 0
0.32569087 -0.1506263 0.86800003 0
0.32636011 -0.1506263 0.86800003 0
0.32736394 -0.1506263 0.86800003 0
0.3283678 -0.1506263 0.86800003 65536
0.32744747 -0.15530951 0.87000006 0
0.32845363 -0.15530951 0.87000006 0
0.32912442 -0.15530951 0.87000006 0
0.32744747 -0.15464242 0.87000006 0
0.32845363 -0.15464242 0.87000006 0
0.32912442 -0.15464242 0.87000006 0
0.32744747 -0.15364176 0.87000006 0
0.32845363 -0.15364176 0.87000006 0
0.32912442 -0.15364176 0.87000006 0
0.32375821 -0.14730434 0.87000006 0
0.32442901 -0.14730434 0.87000006 65536
0.32543516 -0.14730434 0.87000006 196864
0.32375821 -0.14663725 0.87000006 0
0.32442901 -0.14663725 0.87000006 131072
0.32543516 -0.14663725 0.87000006 394240
0.32375821 -0.1456366 0.87000006 131584
0.32442901 -0.1456366 0.87000006 394240
0.32543516 -0.1456366 0.87000006 525826
0.32375821 -0.14463596 0.87000006 394755
0.32442901 -0.14463596 0.87000006 591619
0.32543516 -0.14463596 0.87000006 591619
0.32375821 -0.1436353 0.87000006 592134
0.32442901 -0.1436353 0.87000006 657669
0.32543516 -0.1436353 0.87000006 657669
0.32375821 -0.14263466 0.87000006 723720
0.32442901 -0.14263466 0.87000006 723718
0.32543516 -0.14263466 0.87000006 723718
0.32375821 -0.14163402 0.87000006 723720
0.32442901 -0.14163402 0.87000006 723718
0.32543516 -0.14163402 0.87000006 723718
0.32375821 -0.14063337 0.87000006 723720
0.32442901 -0.14063337 0.87000006 723718
0.32543516 -0.14063337 0.87000006 723718
0.32375821 -0.13963273 0.87000006 789513
0.32442901 -0.13963273 0.87000006 723718
0.32543516 -0.13963273 0.87000006 723718
0.32375821 -0.13863207 0.87000006 789513
0.32442901 -0.13863207 0.87000006 723718
0.32543516 -0.13863207 0.87000006 723718
0.32748806 -0.15815949 0.87100005 0
0.32849538 -0.15815949 0.87100005 0
0.3295027 -0.15815949 0.87100005 0
0.32748806 -0.15749162 0.87100005 0
0.32849538 -0.15749162 0.87100005 0
0.3295027 -0.15749162 0.87100005 0
0.32748806 -0.15648983 0.87100005 0
0.32849538 -0.15648983 0.87100005 0
0.3295027 -0.15648983 0.87100005 0
0.32446611 -0.15014513 0.87100005 0
0.32547343 -0.15014513 0.87100005 0
0.32614499 -0.15014513 0.87100005 0
0.32446611 -0.14947726 0.87100005 0
0.32547343 -0.14947726 0.87100005 0
0.32614499 -0.14947726 0.87100005 0
0.32446611 -0.14847547 0.87100005 0
0.32547343 -0.14847547 0.87100005 0
0.32614499 -0.14847547 0.87100005 65536
0.32592061 -0.15602359 0.87400001 0
0.32659447 -0.15602359 0.87400001 0
0.32760525 -0.15602359 0.87400001 0
0.32592061 -0.15535343 0.87400001 0
0.32659447 -0.15535343 0.87400001 0
0.32760525 -0.15535343 0.87400001 0
0.32592061 -0.15434818 0.87400001 0
0.32659447 -0.15434818 0.87400001 0
0.32760525 -0.15434818 0.87400001 0
0.3255477 -0.15316749 0.87300003 0
0.32655734 -0.15316749 0.87300003 0
0.3255477 -0.15249808 0.87300003 0
0.32655734 -0.15249808 0.87300003 0
0.3255477 -0.15149398 0.87300003 0
0.32655734 -0.15149398 0.87300003 0
0.32737741 -0.15924899 0.87700003 0
0.32839167 -0.15924899 0.87700003 0
0.32906783 -0.15924899 0.87700003 0
0.32737741 -0.15857653 0.87700003 0
0.32839167 -0.15857653 0.87700003 0
0.32906783 -0.15857653 0.87700003 0
0.32737741 -0.15756783 0.87700003 0
0.32839167 -0.15756783 0.87700003 0
0.32906783 -0.15756783 0.87700003 0
0.32433465 -0.14512724 0.87700003 0
0.32534891 -0.14512724 0.87700003 328962
0.32433465 -0.14445476 0.87700003 131584
0.32534891 -0.14445476 0.87700003 460548
0.32433465 -0.14344607 0.87700003 394755
0.32534891 -0.14344607 0.87700003 526341
0.32433465 -0.14243737 0.87700003 526341
0.32534891 -0.14243737 0.87700003 657927
0.32433465 -0.14142868 0.87700003 592134
0.32534891 -0.14142868 0.87700003 657927
0.32433465 -0.14041997 0.87700003 789513
0.32534891 -0.14041997 0.87700003 789513
0.32433465 -0.13974752 0.87700003 789513
0.32534891 -0.13974752 0.87700003 789513
0.32541317 -0.15152417 0.87900007 0
0.32642972 -0.15152417 0.87900007 0
0.32541317 -0.15051317 0.87900007 0
0.32642972 -0.15051317 0.87900007 0
0.32541317 -0.14950219 0.87900007 0
0.32642972 -0.14950219 0.87900007 0
0.32541317 -0.14849117 0.87900007 0
0.32642972 -0.14849117 0.87900007 0
0.32541317 -0.14748019 0.87900007 0
0.32642972 -0.14748019 0.87900007 0
0.32541317 -0.14646919 0.87900007 0
0.32642972 -0.14646919 0.87900007 197377
0.32655358 -0.16033851 0.88300002 0
0.32757479 -0.16033851 0.88300002 0
0.328596 -0.16033851 0.88300002 0
0.32655358 -0.15966143 0.88300002 0
0.32757479 -0.15966143 0.88300002 0
0.328596 -0.15966143 0.88300002 0
0.32655358 -0.15864584 0.88300002 0
0.32757479 -0.15864584 0.88300002 0
0.328596 -0.15864584 0.88300002 0
0.32652375 -0.15745172 0.88200003 0
0.3275438 -0.15745172 0.88200003 0
0.32822382 -0.15745172 0.88200003 0
0.32652375 -0.15643728 0.88200003 0
0.3275438 -0.15643728 0.88200003 0
0.32822382 -0.15643728 0.88200003 0
0.32652375 -0.15542282 0.88200003 0
0.3275438 -0.15542282 0.88200003 0
0.32822382 -0.15542282 0.88200003 0
0.32652375 -0.15440838 0.88200003 0
0.3275438 -0.15440838 0.88200003 0
0.32822382 -0.15440838 0.88200003 0
0.32652375 -0.15339392 0.88200003 0
0.3275438 -0.15339392 0.88200003 0
0.32822382 -0.15339392 0.88200003 0
0.32652375 -0.15271764 0.88200003 0
0.3275438 -0.15271764 0.88200003 0
0.32822382 -0.15271764 0.88200003 0
0.3256641 -0.14422393 0.88800007 0
0.32634875 -0.14422393 0.88800007 263169
0.32737571 -0.14422393 0.88800007 394755
0.3256641 -0.14354303 0.88800007 328962
0.32634875 -0.14354303 0.88800007 526341
0.32737571 -0.14354303 0.88800007 526341
0.3256641 -0.14252168 0.88800007 526341
0.32634875 -0.14252168 0.88800007 526341
0.32737571 -0.14252168 0.88800007 657927
0.3256641 -0.14150034 0.88800007 592134
0.32634875 -0.14150034 0.88800007 723720
0.32737571 -0.14150034 0.88800007 789513
0.32637352 -0.153248 0.88900006 0
0.32740167 -0.153248 0.88900006 0
0.32808709 -0.153248 0.88900006 0
0.32637352 -0.15256634 0.88900006 0
0.32740167 -0.15256634 0.88900006 0
0.32808709 -0.15256634 0.88900006 0
0.32637352 -0.15154384 0.88900006 0
0.32740167 -0.15154384 0.88900006 0
0.32808709 -0.15154384 0.88900006 0
0.32637352 -0.15052134 0.88900006 0
0.32740167 -0.15052134 0.88900006 0
0.32808709 -0.15052134 0.88900006 0
0.32637352 -0.14949884 0.88900006 0
0.32740167 -0.14949884 0.88900006 0
0.32808709 -0.14949884 0.88900006 0
0.32637352 -0.14847633 0.88900006 0
0.32740167 -0.14847633 0.88900006 0
0.32808709 -0.14847633 0.88900006 0
0.32637352 -0.14745384 0.88900006 0
0.32740167 -0.14745384 0.88900006 0
0.32808709 -0.14745384 0.88900006 0
0.32637352 -0.14643134 0.88900006 0
0.32740167 -0.14643134 0.88900006 0
0.32808709 -0.14643134 0.88900006 0
0.32637352 -0.14540884 0.88900006 0
0.32740167 -0.14540884 0.88900006 131584
0.32808709 -0.14540884 0.88900006 328962
0.32676429 -0.16144955 0.89100003 0
0.32745126 -0.16144955 0.89100003 0
0.3284817 -0.16144955 0.89100003 0
0.32676429 -0.16042477 0.89100003 0
0.32745126 -0.16042477 0.89100003 0
0.3284817 -0.16042477 0.89100003 0
0.32676429 -0.15939996 0.89100003 0
0.32745126 -0.15939996 0.89100003 0
0.3284817 -0.15939996 0.89100003 0
0.32676429 -0.15837516 0.89100003 0
0.32745126 -0.15837516 0.89100003 0
0.3284817 -0.15837516 0.89100003 0
0.32676429 -0.15735036 0.89100003 0
0.32745126 -0.15735036 0.89100003 0
0.3284817 -0.15735036 0.89100003 0
0.32676429 -0.15632556 0.89100003 0
0.32745126 -0.15632556 0.89100003 0
0.3284817 -0.15632556 0.89100003 0
0.32676429 -0.15564236 0.89100003 0
0.32745126 -0.15564236 0.89100003 0
0.3284817 -0.15564236 0.89100003 0
0.32676429 -0.15461758 0.89100003 0
0.32745126 -0.15461758 0.89100003 0
0.3284817 -0.15461756 0.89100003 0
0.32763627 -0.16342542 0.90000004 0
0.32867715 -0.16342542 0.90000004 0
0.32937104 -0.16342542 0.90000004 0
0.32763627 -0.16239026 0.90000004 0
0.32867715 -0.16239026 0.90000004 0
0.32937104 -0.16239026 0.90000004 0
0.32763627 -0.16135512 0.90000004 0
0.32867715 -0.16135512 0.90000004 0
0.32937104 -0.16135512 0.90000004 0
0.32763627 -0.16066502 0.90000004 0
0.32867715 -0.16066502 0.90000004 0
0.32937104 -0.16066502 0.90000004 0
0.32763627 -0.15962987 0.90000004 0
0.32867715 -0.15962987 0.90000004 0
0.32937104 -0.15962987 0.90000004 0
0.32763627 -0.15859471 0.90000004 0
0.32867715 -0.15859471 0.90000004 0
0.32937104 -0.15859471 0.90000004 0
0.32763627 -0.15790461 0.90000004 0
0.32867715 -0.15790461 0.90000004 0
0.32937104 -0.15790461 0.90000004 0
0.32763627 -0.15445411 0.90000004 0
0.32867715 -0.15445411 0.90000004 0
0.32937104 -0.15445411 0.90000004 0
0.32763627 -0.15341896 0.90000004 0
0.32867715 -0.15341896 0.90000004 0
0.32937104 -0.15341896 0.90000004 0
0.32763627 -0.1523838 0.90000004 0
0.32867715 -0.1523838 0.90000004 0
0.32937104 -0.1523838 0.90000004 0
0.32763627 -0.1516937 0.90000004 0
0.32867715 -0.1516937 0.90000004 0
0.32937104 -0.1516937 0.90000004 0
0.32836437 -0.15756388 0.90200007 0
0.32940754 -0.15756388 0.90200007 0
0.33010298 -0.15756388 0.90200007 0
0.32836437 -0.15652643 0.90200007 0
0.32940754 -0.15652642 0.90200007 0
0.33010298 -0.15652642 0.90200007 0
0.32836437 -0.15548897 0.90200007 0
0.32940754 -0.15548897 0.90200007 0
0.33010298 -0.15548897 0.90200007 0
0.32836437 -0.15133917 0.90200007 0
0.32940754 -0.15133917 0.90200007 0
0.33010298 -0.15133917 0.90200007 0
0.32836437 -0.15064754 0.90200007 0
0.32940754 -0.15064754 0.90200007 0
0.33010298 -0.15064754 0.90200007 0
0.32836437 -0.14961007 0.90200007 0
0.32940754 -0.14961007 0.90200007 0
0.33010298 -0.14961007 0.90200007 0
0.32838029 -0.14839114 0.90300006 0
0.32942462 -0.14839114 0.90300006 0
0.33046895 -0.14839114 0.90300006 0
0.32838029 -0.14735255 0.90300006 0
0.32942462 -0.14735255 0.90300006 0
0.33046895 -0.14735255 0.90300006 0
0.32838029 -0.14666013 0.90300006 0
0.32942462 -0.14666013 0.90300006 0
0.33046895 -0.14666013 0.90300006 0
0.32945651 -0.14629105 0.90500003 0
0.33050314 -0.14629105 0.90500003 0
0.3312009 -0.14629105 0.90500003 0
0.32945651 -0.14559712 0.90500003 0
0.33050314 -0.14559712 0.90500003 131584
0.3312009 -0.14559712 0.90500003 328960
0.32945651 -0.14455621 0.90500003 131584
0.33050314 -0.14455621 0.90500003 394753
0.3312009 -0.14455621 0.90500003 526339
0.32775885 -0.16505967 0.90900004 0
0.32845968 -0.16505967 0.90900004 0
0.32951096 -0.16505967 0.90900004 0
0.32775885 -0.16436267 0.90900004 0
0.32845968 -0.16436267 0.90900004 0
0.32951096 -0.16436267 0.90900004 0
0.32775885 -0.16366567 0.90900004 0
0.32845968 -0.16366567 0.90900004 0
0.32951096 -0.16366567 0.90900004 0
0.32775885 -0.16262016 0.90900004 0
0.32845968 -0.16262016 0.90900004 0
0.32951096 -0.16262017 0.90900004 0
0.32775885 -0.16157466 0.90900004 0
0.32845968 -0.16157466 0.90900004 0
0.32951096 -0.16157466 0.90900004 0
0.32775885 -0.16052917 0.90900004 0
0.32845968 -0.16052917 0.90900004 0
0.32951096 -0.16052915 0.90900004 0
0.32775885 -0.15948366 0.90900004 0
0.32845968 -0.15948366 0.90900004 0
0.32951096 -0.15948366 0.90900004 0
0.32848001 -0.15913603 0.91100007 0
0.32953358 -0.15913603 0.91100007 0
0.33058715 -0.15913603 0.91100007 0
0.32848001 -0.15843749 0.91100007 0
0.32953358 -0.15843749 0.91100007 0
0.33058715 -0.15843749 0.91100007 0
0.32848001 -0.15738969 0.91100007 0
0.32953358 -0.15738969 0.91100007 0
0.33058715 -0.15738969 0.91100007 0
0.32848001 -0.15634188 0.91100007 0
0.32953358 -0.15634188 0.91100007 0
0.33058715 -0.15634188 0.91100007 0
0.3295531 -0.155635 0.91300005 0
0.33060899 -0.155635 0.91300005 0
0.33131292 -0.155635 0.91300005 0
0.3295531 -0.1545849 0.91300005 0
0.33060899 -0.1545849 0.91300005 0
0.33131292 -0.1545849 0.91300005 0
0.3295531 -0.15388484 0.91300005 0
0.33060899 -0.15388484 0.91300005 0
0.33131292 -0.15388484 0.91300005 0
0.32956171 -0.15335254 0.91400003 0
0.33061877 -0.15335254 0.91400003 0
0.33167583 -0.15335254 0.91400003 0
0.32956171 -0.15265171 0.91400003 0
0.33061877 -0.15265171 0.91400003 0
0.33167583 -0.15265171 0.91400003 0
0.32956171 -0.15160045 0.91400003 0
0.33061877 -0.15160045 0.91400003 0
0.33167583 -0.15160045 0.91400003 0
0.32781535 -0.16651236 0.91700006 0
0.32852238 -0.16651236 0.91700006 0
0.3295829 -0.16651236 0.91700006 0
0.32781535 -0.16545764 0.91700006 0
0.32852238 -0.16545764 0.91700006 0
0.3295829 -0.16545764 0.91700006 0
0.32781535 -0.16440295 0.91700006 0
0.32852238 -0.16440295 0.91700006 0
0.3295829 -0.16440295 0.91700006 0
0.32781535 -0.16369981 0.91700006 0
0.32852238 -0.16369981 0.91700006 0
0.3295829 -0.16369981 0.91700006 0
0.33064342 -0.15104336 0.91700006 0
0.33135042 -0.15104336 0.91700006 0
0.33241093 -0.15104336 0.91700006 0
0.33064342 -0.15034023 0.91700006 0
0.33135042 -0.15034023 0.91700006 0
0.33241093 -0.15034023 0.91700006 0
0.33064342 -0.14963709 0.91700006 0
0.33135042 -0.14963709 0.91700006 0
0.33241093 -0.14963709 0.91700006 0
0.33064342 -0.14893395 0.91700006 0
0.33135042 -0.14893395 0.91700006 0
0.33241093 -0.14893395 0.91700006 0
0.32853034 -0.16335216 0.91900003 0
0.32959318 -0.16335216 0.91900003 0
0.33065602 -0.16335216 0.91900003 0
0.32853034 -0.1626475 0.91900003 0
0.32959318 -0.1626475 0.91900003 0
0.33065602 -0.1626475 0.91900003 0
0.32853034 -0.16159049 0.91900003 0
0.32959318 -0.16159049 0.91900003 0
0.33065602 -0.16159049 0.91900003 0
0.32853034 -0.16053349 0.91900003 0
0.32959318 -0.16053349 0.91900003 0
0.33065602 -0.16053349 0.91900003 0
0.33242738 -0.1485541 0.91900003 0
0.33349022 -0.1485541 0.91900003 0
0.33242738 -0.1474971 0.91900003 0
0.33349022 -0.1474971 0.91900003 0
0.33242738 -0.1464401 0.91900003 0
0.33349022 -0.1464401 0.91900003 0
0.32960281 -0.16035056 0.92200005 0
0.33031365 -0.16035056 0.92200005 0
0.33137995 -0.16035056 0.92200005 0
0.32960281 -0.15964359 0.92200005 0
0.33031365 -0.15964359 0.92200005 0
0.33137995 -0.15964359 0.92200005 0
0.32960281 -0.15858313 0.92200005 0
0.33031365 -0.15858313 0.92200005 0
0.33137995 -0.15858313 0.92200005 0
0.32960281 -0.15752268 0.92200005 0
0.33031365 -0.15752268 0.92200005 0
0.33137995 -0.15752268 0.92200005 0
0.32960281 -0.15646224 0.92200005 0
0.33031365 -0.15646224 0.92200005 0
0.33137995 -0.15646224 0.92200005 0
0.32960281 -0.15540178 0.92200005 0
0.33031365 -0.15540178 0.92200005 0
0.33137995 -0.15540178 0.92200005 0
0.32746816 -0.16742918 0.92400002 0
0.32853675 -0.16742918 0.92400002 0
0.32960537 -0.16742918 0.92400002 0
0.32746816 -0.16636643 0.92400002 0
0.32853675 -0.16636643 0.92400002 0
0.32960537 -0.16636643 0.92400002 0
0.32746816 -0.16565792 0.92400002 0
0.32853675 -0.16565792 0.92400002 0
0.32960537 -0.16565792 0.92400002 0
0.32746816 -0.16494942 0.92400002 0
0.32853675 -0.16494942 0.92400002 0
0.32960537 -0.16494942 0.92400002 0
0.3317467 -0.15536593 0.92600006 0
0.33246064 -0.15536593 0.92600006 0
0.33317459 -0.15536593 0.92600006 0
0.3317467 -0.15465589 0.92600006 0
0.33246064 -0.15465589 0.92600006 0
0.33317459 -0.15465589 0.92600006 0
0.3317467 -0.15359083 0.92600006 0
0.33246064 -0.15359083 0.92600006 0
0.33317459 -0.15359083 0.92600006 0
0.32995641 -0.16512966 0.92900002 0
0.33067268 -0.16512966 0.92900002 0
0.33138895 -0.16512966 0.92900002 0
0.32995641 -0.16441733 0.92900002 0
0.33067268 -0.16441733 0.92900002 0
0.33138895 -0.16441733 0.92900002 0
0.32995641 -0.16370499 0.92900002 0
0.33067268 -0.16370499 0.92900002 0
0.33138895 -0.16370499 0.92900002 0
0.32995641 -0.16263649 0.92900002 0
0.33067268 -0.16263649 0.92900002 0
0.33138895 -0.16263649 0.92900002 0
0.32743663 -0.16905452 0.93100005 0
0.32851335 -0.16905452 0.93100005 0
0.32923114 -0.16905452 0.93100005 0
0.32743663 -0.16834065 0.93100005 0
0.32851335 -0.16834065 0.93100005 0
0.32923114 -0.16834065 0.93100005 0
0.32743663 -0.16762678 0.93100005 0
0.32851335 -0.16762678 0.93100005 0
0.32923114 -0.16762678 0.93100005 0
0.32743663 -0.16655597 0.93100005 0
0.32851335 -0.16655597 0.93100005 0
0.32923114 -0.16655597 0.93100005 0
0.333538 -0.15334935 0.93100005 0
0.33461469 -0.15334935 0.93100005 0
0.333538 -0.15263548 0.93100005 0
0.33461469 -0.15263548 0.93100005 0
0.333538 -0.15156469 0.93100005 0
0.33461469 -0.15156469 0.93100005 0
0.33138126 -0.16208972 0.93200004 0
0.33245912 -0.16208972 0.93200004 0
0.33138126 -0.16137509 0.93200004 0
0.33245912 -0.16137509 0.93200004 0
0.33138126 -0.16066045 0.93200004 0
0.33245912 -0.16066045 0.93200004 0
0.33138126 -0.15994582 0.93200004 0
0.33245912 -0.15994582 0.93200004 0
0.32955599 -0.16637391 0.93600005 0
0.33063847 -0.16637391 0.93600005 0
0.33172098 -0.16637391 0.93600005 0
0.32955599 -0.16565621 0.93600005 0
0.33063847 -0.16565621 0.93600005 0
0.33172098 -0.16565621 0.93600005 0
0.32955599 -0.16457964 0.93600005 0
0.33063847 -0.16457964 0.93600005 0
0.33172098 -0.16457964 0.93600005 0
0.32955599 -0.1635031 0.93600005 0
0.33063847 -0.1635031 0.93600005 0
0.33172098 -0.1635031 0.93600005 0
0.33244264 -0.15955572 0.93600005 0
0.33352512 -0.15955572 0.93600005 0
0.33244264 -0.15847915 0.93600005 0
0.33352512 -0.15847915 0.93600005 0
0.33244264 -0.15776145 0.93600005 0
0.33352512 -0.15776145 0.93600005 0
0.33532926 -0.15130211 0.93600005 0
0.33641177 -0.15130211 0.93600005 0
0.33749425 -0.15130211 0.93600005 0
0.33532926 -0.1505844 0.93600005 0
0.33641177 -0.1505844 0.93600005 0
0.33749425 -0.1505844 0.93600005 0
0.33532926 -0.14950785 0.93600005 0
0.33641174 -0.14950785 0.93600005 0
0.33749425 -0.14950785 0.93600005 0
0.32737958 -0.17014402 0.93700004 394752
0.32846323 -0.17014402 0.93700004 65792
0.32737958 -0.16942555 0.93700004 394752
0.32846323 -0.16942555 0.93700004 65792
0.32737958 -0.16870707 0.93700004 263168
0.32846323 -0.16870707 0.93700004 0
0.32737958 -0.16762936 0.93700004 65792
0.32846323 -0.16762936 0.93700004 0
0.32737958 -0.16655166 0.93700004 0
0.32846323 -0.16655166 0.93700004 0
0.32918566 -0.16655166 0.93700004 0
0.33458129 -0.1575219 0.94100004 0
0.33566955 -0.1575219 0.94100004 0
0.33639506 -0.1575219 0.94100004 0
0.33458129 -0.15643959 0.94100004 0
0.33566955 -0.15643959 0.94100004 0
0.33639506 -0.15643959 0.94100004 0
0.33458129 -0.15571804 0.94100004 0
0.33566955 -0.15571804 0.94100004 0
0.33639506 -0.15571804 0.94100004 0
0.32585824 -0.17105193 0.94200003 592128
0.32658452 -0.17105193 0.94200003 592128
0.32731083 -0.17105193 0.94200003 592128
0.32803711 -0.17105193 0.94200003 526337
0.32585824 -0.17032963 0.94200003 592128
0.32658452 -0.17032963 0.94200003 592128
0.32731083 -0.17032963 0.94200003 592128
0.32803711 -0.17032963 0.94200003 526337
0.32585824 -0.16960733 0.94200003 526336
0.32658452 -0.16960733 0.94200003 526336
0.32731083 -0.16960733 0.94200003 460544
